# .PCD v0.7 - Point Cloud Data file format
VERSION 0.7
FIELDS x y z
SIZE 4 4 4
TYPE F F F
COUNT 1 1 1
WIDTH 1864
HEIGHT 1
VIEWPOINT 0 0 0 1 0 0 0
POINTS 1864
DATA ascii
6.5100002 5.0100002 2.0599999
6.5100002 5.0100002 2.1600001
6.5100002 5.0100002 2.26
6.5100002 5.0100002 2.3599999
6.5100002 5.0100002 2.46
6.5100002 5.0100002 2.5599999
6.5100002 5.0100002 2.6600001
6.5100002 5.0100002 2.76
6.5100002 5.0100002 2.8599999
6.5100002 5.0100002 2.96
6.5100002 5.0100002 3.0599999
6.5100002 5.0100002 3.1600001
6.5100002 5.0100002 3.26
6.5100002 5.0100002 3.3599999
6.5100002 5.0100002 3.46
6.5100002 5.0100002 3.5599999
6.5100002 5.1100001 -1.9400001
6.5100002 5.1100001 -1.84
6.5100002 5.1100001 -1.74
6.5100002 5.1100001 -1.64
6.5100002 5.1100001 -1.54
6.5100002 5.1100001 -1.4400001
6.5100002 5.1100001 -1.34
6.5100002 5.1100001 -1.24
6.5100002 5.1100001 -1.14
6.5100002 5.1100001 -1.04
6.5100002 5.1100001 -0.94
6.5100002 5.1100001 -0.83999997
6.5100002 5.1100001 -0.74000001
6.5100002 5.1100001 -0.63999999
6.5100002 5.1100001 -0.54000002
6.5100002 5.1100001 -0.44
6.5100002 5.1100001 -0.34
6.5100002 5.1100001 -0.23999999
6.5100002 5.1100001 -0.14
6.5100002 5.1100001 -0.039999999
6.5100002 5.1100001 0.059999999
6.5100002 5.1100001 0.16
6.5100002 5.1100001 0.25999999
6.5100002 5.1100001 0.36000001
6.5100002 5.1100001 0.46000001
6.5100002 5.1100001 0.56
6.5100002 5.1100001 0.66000003
6.5100002 5.1100001 0.75999999
6.5100002 5.1100001 0.86000001
6.5100002 5.1100001 0.95999998
6.5100002 5.1100001 1.0599999
6.5100002 5.1100001 1.16
6.5100002 5.1100001 1.26
6.5100002 5.1100001 1.36
6.5100002 5.1100001 1.46
6.5100002 5.1100001 1.5599999
6.5100002 5.1100001 1.66
6.5100002 5.1100001 1.76
6.5100002 5.1100001 1.86
6.5100002 5.1100001 1.96
6.5100002 5.1100001 2.0599999
6.5100002 5.1100001 2.1600001
6.5100002 5.1100001 2.26
6.5100002 5.1100001 2.3599999
6.5100002 5.1100001 2.46
6.5100002 5.1100001 2.5599999
6.5100002 5.1100001 2.6600001
6.5100002 5.1100001 2.76
6.5100002 5.1100001 2.8599999
6.5100002 5.1100001 2.96
6.5100002 5.1100001 3.0599999
6.5100002 5.1100001 3.1600001
6.5100002 5.1100001 3.26
6.5100002 5.1100001 3.3599999
6.5100002 5.1100001 3.46
6.5100002 5.1100001 3.5599999
6.5100002 5.1100001 3.6600001
6.5100002 5.1100001 3.76
6.5100002 5.1100001 3.8599999
6.5100002 5.21 -1.9400001
6.5100002 5.21 -1.84
6.5100002 5.21 -1.74
6.5100002 5.21 -1.64
6.5100002 5.21 -1.54
6.5100002 5.21 -1.4400001
6.5100002 5.21 -1.34
6.5100002 5.21 -1.24
6.5100002 5.21 -1.14
6.5100002 5.21 -1.04
6.5100002 5.21 -0.94
6.5100002 5.21 -0.83999997
6.5100002 5.21 -0.74000001
6.5100002 5.21 -0.63999999
6.5100002 5.21 -0.54000002
6.5100002 5.21 -0.44
6.5100002 5.21 -0.34
6.5100002 5.21 -0.23999999
6.5100002 5.21 -0.14
6.5100002 5.21 -0.039999999
6.5100002 5.21 0.059999999
6.5100002 5.21 0.16
6.5100002 5.21 0.25999999
6.5100002 5.21 0.36000001
6.5100002 5.21 0.46000001
6.5100002 5.21 0.56
6.5100002 5.21 0.66000003
6.5100002 5.21 0.75999999
6.5100002 5.21 0.86000001
6.5100002 5.21 0.95999998
6.5100002 5.21 1.0599999
6.5100002 5.21 1.16
6.5100002 5.21 1.26
6.5100002 5.21 1.36
6.5100002 5.21 1.46
6.5100002 5.21 1.5599999
6.5100002 5.21 1.66
6.5100002 5.21 1.76
6.5100002 5.21 1.86
6.5100002 5.21 1.96
6.5100002 5.21 2.0599999
6.5100002 5.21 2.1600001
6.5100002 5.21 2.26
6.5100002 5.21 2.3599999
6.5100002 5.21 2.46
6.5100002 5.21 2.5599999
6.5100002 5.21 2.6600001
6.5100002 5.21 2.76
6.5100002 5.21 2.8599999
6.5100002 5.21 2.96
6.5100002 5.21 3.0599999
6.5100002 5.21 3.1600001
6.5100002 5.21 3.26
6.5100002 5.21 3.3599999
6.5100002 5.21 3.46
6.5100002 5.21 3.5599999
6.5100002 5.21 3.6600001
6.5100002 5.21 3.76
6.21 4.5100002 -1.9400001
6.21 4.5100002 -1.84
6.21 4.5100002 -1.74
6.21 4.5100002 -1.64
6.21 4.5100002 -1.54
6.21 4.5100002 -1.4400001
6.21 4.5100002 -1.34
6.21 4.5100002 -1.24
6.21 4.5100002 -1.14
6.21 4.5100002 -1.04
6.21 4.5100002 -0.94
6.21 4.5100002 -0.83999997
6.21 4.5100002 -0.74000001
6.21 4.5100002 -0.63999999
6.21 4.5100002 -0.54000002
6.21 4.5100002 -0.44
6.21 4.5100002 -0.34
6.21 4.5100002 -0.23999999
6.21 4.5100002 -0.14
6.21 4.5100002 -0.039999999
6.21 4.5100002 0.059999999
6.21 4.5100002 0.16
6.21 4.5100002 0.25999999
6.21 4.5100002 0.36000001
6.21 4.5100002 0.46000001
6.21 4.5100002 0.56
6.21 4.5100002 0.66000003
6.21 4.5100002 0.75999999
6.21 4.5100002 0.86000001
6.21 4.5100002 0.95999998
6.21 4.5100002 1.0599999
6.21 4.5100002 1.16
6.21 4.5100002 1.26
6.21 4.5100002 1.36
6.21 4.5100002 1.46
6.21 4.5100002 1.5599999
6.21 4.5100002 1.66
6.21 4.5100002 1.76
6.21 4.5100002 1.86
6.21 4.5100002 1.96
6.21 4.5100002 2.0599999
6.21 4.5100002 2.1600001
6.21 4.5100002 2.26
6.21 4.5100002 2.3599999
6.21 4.5100002 2.46
6.21 4.5100002 2.5599999
6.21 4.5100002 2.6600001
6.21 4.5100002 2.76
6.21 4.5100002 2.8599999
6.21 4.5100002 2.96
6.21 4.5100002 3.0599999
6.21 4.5100002 3.1600001
6.21 4.5100002 3.26
6.21 4.5100002 3.3599999
6.21 4.5100002 3.46
6.21 4.5100002 3.5599999
6.21 4.5100002 3.6600001
6.21 4.5100002 3.76
6.21 4.5100002 3.8599999
6.21 4.5100002 3.96
6.21 4.6100001 -1.9400001
6.21 4.6100001 -1.84
6.21 4.6100001 -1.74
6.21 4.6100001 -1.64
6.21 4.6100001 -1.54
6.21 4.6100001 -1.4400001
6.21 4.6100001 -1.34
6.21 4.6100001 -1.24
6.21 4.6100001 -1.14
6.21 4.6100001 -1.04
6.21 4.6100001 -0.94
6.21 4.6100001 -0.83999997
6.21 4.6100001 -0.74000001
6.21 4.6100001 -0.63999999
6.21 4.6100001 -0.54000002
6.21 4.6100001 -0.44
6.21 4.6100001 -0.34
6.21 4.6100001 -0.23999999
6.21 4.6100001 -0.14
6.21 4.6100001 -0.039999999
6.21 4.6100001 0.059999999
6.21 4.6100001 0.16
6.21 4.6100001 0.25999999
6.21 4.6100001 0.36000001
6.21 4.6100001 0.46000001
6.21 4.6100001 0.56
6.21 4.6100001 0.66000003
6.21 4.6100001 0.75999999
6.21 4.6100001 0.86000001
6.21 4.6100001 0.95999998
6.21 4.6100001 1.0599999
6.21 4.6100001 1.16
6.21 4.6100001 1.26
6.21 4.6100001 1.36
6.21 4.6100001 1.46
6.21 4.6100001 1.5599999
6.21 4.6100001 1.66
6.21 4.6100001 1.76
6.21 4.6100001 1.86
6.21 4.6100001 1.96
6.21 4.6100001 2.0599999
6.21 4.6100001 2.1600001
6.21 4.6100001 2.26
6.21 4.6100001 2.3599999
6.21 4.6100001 2.46
6.21 4.6100001 2.5599999
6.21 4.6100001 2.6600001
6.21 4.6100001 2.76
6.21 4.6100001 2.8599999
6.21 4.6100001 2.96
6.21 4.6100001 3.0599999
6.21 4.6100001 3.1600001
6.21 4.6100001 3.26
6.21 4.6100001 3.3599999
6.21 4.6100001 3.46
6.21 4.6100001 3.5599999
6.21 4.6100001 3.6600001
6.21 4.6100001 3.76
6.21 4.6100001 3.8599999
6.21 4.71 -1.9400001
6.21 4.71 -1.84
6.21 4.71 -1.74
6.21 4.71 -1.64
6.21 4.71 -1.54
6.21 4.71 -1.4400001
6.21 4.71 -1.34
6.21 4.71 -1.24
6.21 4.71 -1.14
6.21 4.71 -1.04
6.21 4.71 -0.94
6.21 4.71 -0.83999997
6.21 4.71 -0.74000001
6.21 4.71 -0.63999999
6.21 4.71 -0.54000002
6.21 4.71 -0.44
6.21 4.71 -0.34
6.21 4.71 -0.23999999
6.21 4.71 -0.14
6.21 4.71 -0.039999999
6.21 4.71 0.059999999
6.21 4.71 0.16
6.21 4.71 0.25999999
6.21 4.71 0.36000001
6.21 4.71 0.46000001
6.21 4.71 0.56
6.21 4.71 0.66000003
6.21 4.71 0.75999999
6.21 4.71 0.86000001
6.21 4.71 0.95999998
6.21 4.71 1.0599999
6.21 4.71 1.16
6.21 4.71 1.26
6.21 4.71 1.36
6.21 4.71 1.46
6.21 4.71 1.5599999
6.21 4.71 1.66
6.21 4.71 1.76
6.21 4.71 1.86
6.21 4.71 1.96
6.21 4.71 2.0599999
6.21 4.71 2.1600001
6.21 4.71 2.26
6.21 4.71 2.3599999
6.21 4.71 2.46
6.21 4.71 2.5599999
6.21 4.71 2.6600001
6.21 4.71 2.76
6.21 4.71 2.8599999
6.21 4.71 2.96
6.21 4.71 3.0599999
6.21 4.71 3.1600001
6.21 4.71 3.26
6.21 4.71 3.3599999
6.21 4.71 3.46
6.21 4.71 3.5599999
6.21 4.8099999 -1.9400001
6.21 4.8099999 -1.84
6.21 4.8099999 -1.74
6.21 4.8099999 -1.64
6.21 4.8099999 -1.54
6.21 4.8099999 -1.4400001
6.21 4.8099999 -1.34
6.21 4.8099999 -1.24
6.21 4.8099999 -1.14
6.21 4.8099999 -1.04
6.21 4.8099999 -0.94
6.21 4.8099999 -0.83999997
6.21 4.8099999 -0.74000001
6.21 4.8099999 -0.63999999
6.21 4.8099999 -0.54000002
6.21 4.8099999 -0.44
6.21 4.8099999 -0.34
6.21 4.8099999 -0.23999999
6.21 4.8099999 -0.14
6.21 4.8099999 -0.039999999
6.21 4.8099999 0.059999999
6.21 4.8099999 0.16
6.21 4.8099999 0.25999999
6.21 4.8099999 0.36000001
6.21 4.8099999 0.46000001
6.21 4.8099999 0.56
6.21 4.8099999 0.66000003
6.21 4.8099999 0.75999999
6.21 4.8099999 0.86000001
6.21 4.8099999 0.95999998
6.21 4.8099999 1.0599999
6.21 4.8099999 1.16
6.21 4.8099999 1.26
6.21 4.8099999 1.36
6.21 4.8099999 1.46
6.21 4.8099999 1.5599999
6.21 4.8099999 1.66
6.21 4.8099999 1.76
6.21 4.8099999 1.86
6.21 4.8099999 1.96
6.21 4.8099999 2.0599999
6.21 4.8099999 2.1600001
6.21 4.8099999 2.26
6.21 4.8099999 2.3599999
6.21 4.8099999 2.46
6.21 4.8099999 2.5599999
6.21 4.8099999 2.6600001
6.21 4.8099999 2.76
6.21 4.8099999 2.8599999
6.21 4.8099999 2.96
6.21 4.8099999 3.0599999
6.21 4.8099999 3.1600001
6.21 4.8099999 3.26
6.21 4.8099999 3.3599999
6.21 4.8099999 3.46
6.21 4.8099999 3.5599999
6.21 4.8099999 3.6600001
6.3099999 4.5100002 -1.9400001
6.3099999 4.5100002 -1.84
6.3099999 4.5100002 -1.74
6.3099999 4.5100002 -1.64
6.3099999 4.5100002 -1.54
6.3099999 4.5100002 -1.4400001
6.3099999 4.5100002 -1.34
6.3099999 4.5100002 -1.24
6.3099999 4.5100002 -1.14
6.3099999 4.5100002 -1.04
6.3099999 4.5100002 -0.94
6.3099999 4.5100002 -0.83999997
6.3099999 4.5100002 -0.74000001
6.3099999 4.5100002 -0.63999999
6.3099999 4.5100002 -0.54000002
6.3099999 4.5100002 -0.44
6.3099999 4.5100002 -0.34
6.3099999 4.5100002 -0.23999999
6.3099999 4.5100002 -0.14
6.3099999 4.5100002 -0.039999999
6.3099999 4.5100002 0.059999999
6.3099999 4.5100002 0.16
6.3099999 4.5100002 0.25999999
6.3099999 4.5100002 0.36000001
6.3099999 4.5100002 0.46000001
6.3099999 4.5100002 0.56
6.3099999 4.5100002 0.66000003
6.3099999 4.5100002 0.75999999
6.3099999 4.5100002 0.86000001
6.3099999 4.5100002 0.95999998
6.3099999 4.5100002 1.0599999
6.3099999 4.5100002 1.16
6.3099999 4.5100002 1.26
6.3099999 4.5100002 1.36
6.3099999 4.5100002 1.46
6.3099999 4.5100002 1.5599999
6.3099999 4.5100002 1.66
6.3099999 4.5100002 1.76
6.3099999 4.5100002 1.86
6.3099999 4.5100002 1.96
6.3099999 4.5100002 2.0599999
6.3099999 4.5100002 2.1600001
6.3099999 4.5100002 2.26
6.3099999 4.5100002 2.3599999
6.3099999 4.5100002 2.46
6.3099999 4.5100002 2.5599999
6.3099999 4.5100002 2.6600001
6.3099999 4.5100002 2.76
6.3099999 4.5100002 2.8599999
6.3099999 4.5100002 2.96
6.3099999 4.5100002 3.0599999
6.3099999 4.5100002 3.1600001
6.3099999 4.5100002 3.26
6.3099999 4.5100002 3.3599999
6.3099999 4.5100002 3.46
6.3099999 4.5100002 3.5599999
6.3099999 4.6100001 -1.9400001
6.3099999 4.6100001 -1.84
6.3099999 4.6100001 -1.74
6.3099999 4.6100001 -1.64
6.3099999 4.6100001 -1.54
6.3099999 4.6100001 -1.4400001
6.3099999 4.6100001 -1.34
6.3099999 4.6100001 -1.24
6.3099999 4.6100001 -1.14
6.3099999 4.6100001 -1.04
6.3099999 4.6100001 -0.94
6.3099999 4.6100001 -0.83999997
6.3099999 4.6100001 -0.74000001
6.3099999 4.6100001 -0.63999999
6.3099999 4.6100001 -0.54000002
6.3099999 4.6100001 -0.44
6.3099999 4.6100001 -0.34
6.3099999 4.6100001 -0.23999999
6.3099999 4.6100001 -0.14
6.3099999 4.6100001 -0.039999999
6.3099999 4.6100001 0.059999999
6.3099999 4.6100001 0.16
6.3099999 4.6100001 0.25999999
6.3099999 4.6100001 0.36000001
6.3099999 4.6100001 0.46000001
6.3099999 4.6100001 0.56
6.3099999 4.6100001 0.66000003
6.3099999 4.6100001 0.75999999
6.3099999 4.6100001 0.86000001
6.3099999 4.6100001 0.95999998
6.3099999 4.6100001 1.0599999
6.3099999 4.6100001 1.16
6.3099999 4.6100001 1.26
6.3099999 4.6100001 1.36
6.3099999 4.6100001 1.46
6.3099999 4.6100001 1.5599999
6.3099999 4.6100001 1.66
6.3099999 4.6100001 1.76
6.3099999 4.6100001 1.86
6.3099999 4.6100001 1.96
6.3099999 4.6100001 2.0599999
6.3099999 4.6100001 2.1600001
6.3099999 4.6100001 2.26
6.3099999 4.6100001 2.3599999
6.3099999 4.6100001 2.46
6.3099999 4.6100001 2.5599999
6.3099999 4.6100001 2.6600001
6.3099999 4.6100001 2.76
6.3099999 4.6100001 2.8599999
6.3099999 4.6100001 2.96
6.3099999 4.6100001 3.0599999
6.3099999 4.6100001 3.1600001
6.3099999 4.6100001 3.26
6.3099999 4.6100001 3.3599999
6.3099999 4.6100001 3.46
6.3099999 4.6100001 3.5599999
6.3099999 4.6100001 3.6600001
6.3099999 4.6100001 3.76
6.3099999 4.6100001 3.8599999
6.3099999 4.6100001 3.96
6.3099999 4.71 -1.9400001
6.3099999 4.71 -1.84
6.3099999 4.71 -1.74
6.3099999 4.71 -1.64
6.3099999 4.71 -1.54
6.3099999 4.71 -1.4400001
6.3099999 4.71 -1.34
6.3099999 4.71 -1.24
6.3099999 4.71 -1.14
6.3099999 4.71 -1.04
6.3099999 4.71 -0.94
6.3099999 4.71 -0.83999997
6.3099999 4.71 -0.74000001
6.3099999 4.71 -0.63999999
6.3099999 4.71 -0.54000002
6.3099999 4.71 -0.44
6.3099999 4.71 -0.34
6.3099999 4.71 -0.23999999
6.3099999 4.71 -0.14
6.3099999 4.71 -0.039999999
6.3099999 4.71 0.059999999
6.3099999 4.71 0.16
6.3099999 4.71 0.25999999
6.3099999 4.71 0.36000001
6.3099999 4.71 0.46000001
6.3099999 4.71 0.56
6.3099999 4.71 0.66000003
6.3099999 4.71 0.75999999
6.3099999 4.71 0.86000001
6.3099999 4.71 0.95999998
6.3099999 4.71 1.0599999
6.3099999 4.71 1.16
6.3099999 4.71 1.26
6.3099999 4.71 1.36
6.3099999 4.71 1.46
6.3099999 4.71 1.5599999
6.3099999 4.71 1.66
6.3099999 4.71 1.76
6.3099999 4.71 1.86
6.3099999 4.71 1.96
6.3099999 4.71 2.0599999
6.3099999 4.71 2.1600001
6.3099999 4.71 2.26
6.3099999 4.71 2.3599999
6.3099999 4.71 2.46
6.3099999 4.71 2.5599999
6.3099999 4.71 2.6600001
6.3099999 4.71 2.76
6.3099999 4.71 2.8599999
6.3099999 4.71 2.96
6.3099999 4.71 3.0599999
6.3099999 4.71 3.1600001
6.3099999 4.71 3.26
6.3099999 4.71 3.3599999
6.3099999 4.71 3.46
6.3099999 4.71 3.5599999
6.3099999 4.71 3.6600001
6.3099999 4.71 3.76
6.3099999 4.8099999 -1.9400001
6.3099999 4.8099999 -1.84
6.3099999 4.8099999 -1.74
6.3099999 4.8099999 -1.64
6.3099999 4.8099999 -1.54
6.3099999 4.8099999 -1.4400001
6.3099999 4.8099999 -1.34
6.3099999 4.8099999 -1.24
6.3099999 4.8099999 -1.14
6.3099999 4.8099999 -1.04
6.3099999 4.8099999 -0.94
6.3099999 4.8099999 -0.83999997
6.3099999 4.8099999 -0.74000001
6.3099999 4.8099999 -0.63999999
6.3099999 4.8099999 -0.54000002
6.3099999 4.8099999 -0.44
6.3099999 4.8099999 -0.34
6.3099999 4.8099999 -0.23999999
6.3099999 4.8099999 -0.14
6.3099999 4.8099999 -0.039999999
6.3099999 4.8099999 0.059999999
6.3099999 4.8099999 0.16
6.3099999 4.8099999 0.25999999
6.3099999 4.8099999 0.36000001
6.3099999 4.8099999 0.46000001
6.3099999 4.8099999 0.56
6.3099999 4.8099999 0.66000003
6.3099999 4.8099999 0.75999999
6.3099999 4.8099999 0.86000001
6.3099999 4.8099999 0.95999998
6.3099999 4.8099999 1.0599999
6.3099999 4.8099999 1.16
6.3099999 4.8099999 1.26
6.3099999 4.8099999 1.36
6.3099999 4.8099999 1.46
6.3099999 4.8099999 1.5599999
6.3099999 4.8099999 1.66
6.3099999 4.8099999 1.76
6.3099999 4.8099999 1.86
6.3099999 4.8099999 1.96
6.3099999 4.8099999 2.0599999
6.3099999 4.8099999 2.1600001
6.3099999 4.8099999 2.26
6.3099999 4.8099999 2.3599999
6.3099999 4.8099999 2.46
6.3099999 4.8099999 2.5599999
6.3099999 4.8099999 2.6600001
6.3099999 4.8099999 2.76
6.3099999 4.8099999 2.8599999
6.3099999 4.8099999 2.96
6.3099999 4.8099999 3.0599999
6.3099999 4.8099999 3.1600001
6.3099999 4.8099999 3.26
6.3099999 4.8099999 3.3599999
6.3099999 4.8099999 3.46
6.3099999 4.8099999 3.5599999
6.3099999 4.8099999 3.6600001
6.3099999 4.8099999 3.76
6.3099999 4.8099999 3.8599999
6.4099998 4.5100002 -1.9400001
6.4099998 4.5100002 -1.84
6.4099998 4.5100002 -1.74
6.4099998 4.5100002 -1.64
6.4099998 4.5100002 -1.54
6.4099998 4.5100002 -1.4400001
6.4099998 4.5100002 -1.34
6.4099998 4.5100002 -1.24
6.4099998 4.5100002 -1.14
6.4099998 4.5100002 -1.04
6.4099998 4.5100002 -0.94
6.4099998 4.5100002 -0.83999997
6.4099998 4.5100002 -0.74000001
6.4099998 4.5100002 -0.63999999
6.4099998 4.5100002 -0.54000002
6.4099998 4.5100002 -0.44
6.4099998 4.5100002 -0.34
6.4099998 4.5100002 -0.23999999
6.4099998 4.5100002 -0.14
6.4099998 4.5100002 -0.039999999
6.4099998 4.5100002 0.059999999
6.4099998 4.5100002 0.16
6.4099998 4.5100002 0.25999999
6.4099998 4.5100002 0.36000001
6.4099998 4.5100002 0.46000001
6.4099998 4.5100002 0.56
6.4099998 4.5100002 0.66000003
6.4099998 4.5100002 0.75999999
6.4099998 4.5100002 0.86000001
6.4099998 4.5100002 0.95999998
6.4099998 4.5100002 1.0599999
6.4099998 4.5100002 1.16
6.4099998 4.5100002 1.26
6.4099998 4.5100002 1.36
6.4099998 4.5100002 1.46
6.4099998 4.5100002 1.5599999
6.4099998 4.5100002 1.66
6.4099998 4.5100002 1.76
6.4099998 4.5100002 1.86
6.4099998 4.5100002 1.96
6.4099998 4.5100002 2.0599999
6.4099998 4.5100002 2.1600001
6.4099998 4.5100002 2.26
6.4099998 4.5100002 2.3599999
6.4099998 4.5100002 2.46
6.4099998 4.5100002 2.5599999
6.4099998 4.5100002 2.6600001
6.4099998 4.5100002 2.76
6.4099998 4.5100002 2.8599999
6.4099998 4.5100002 2.96
6.4099998 4.5100002 3.0599999
6.4099998 4.5100002 3.1600001
6.4099998 4.5100002 3.26
6.4099998 4.5100002 3.3599999
6.4099998 4.5100002 3.46
6.4099998 4.5100002 3.5599999
6.4099998 4.5100002 3.6600001
6.4099998 4.5100002 3.76
6.4099998 4.6100001 -1.9400001
6.4099998 4.6100001 -1.84
6.4099998 4.6100001 -1.74
6.4099998 4.6100001 -1.64
6.4099998 4.6100001 -1.54
6.4099998 4.6100001 -1.4400001
6.4099998 4.6100001 -1.34
6.4099998 4.6100001 -1.24
6.4099998 4.6100001 -1.14
6.4099998 4.6100001 -1.04
6.4099998 4.6100001 -0.94
6.4099998 4.6100001 -0.83999997
6.4099998 4.6100001 -0.74000001
6.4099998 4.6100001 -0.63999999
6.4099998 4.6100001 -0.54000002
6.4099998 4.6100001 -0.44
6.4099998 4.6100001 -0.34
6.4099998 4.6100001 -0.23999999
6.4099998 4.6100001 -0.14
6.4099998 4.6100001 -0.039999999
6.4099998 4.6100001 0.059999999
6.4099998 4.6100001 0.16
6.4099998 4.6100001 0.25999999
6.4099998 4.6100001 0.36000001
6.4099998 4.6100001 0.46000001
6.4099998 4.6100001 0.56
6.4099998 4.6100001 0.66000003
6.4099998 4.6100001 0.75999999
6.4099998 4.6100001 0.86000001
6.4099998 4.6100001 0.95999998
6.4099998 4.6100001 1.0599999
6.4099998 4.6100001 1.16
6.4099998 4.6100001 1.26
6.4099998 4.6100001 1.36
6.4099998 4.6100001 1.46
6.4099998 4.6100001 1.5599999
6.4099998 4.6100001 1.66
6.4099998 4.6100001 1.76
6.4099998 4.6100001 1.86
6.4099998 4.6100001 1.96
6.4099998 4.6100001 2.0599999
6.4099998 4.6100001 2.1600001
6.4099998 4.6100001 2.26
6.4099998 4.6100001 2.3599999
6.4099998 4.6100001 2.46
6.4099998 4.6100001 2.5599999
6.4099998 4.6100001 2.6600001
6.4099998 4.6100001 2.76
6.4099998 4.6100001 2.8599999
6.4099998 4.6100001 2.96
6.4099998 4.6100001 3.0599999
6.4099998 4.6100001 3.1600001
6.4099998 4.6100001 3.26
6.4099998 4.6100001 3.3599999
6.4099998 4.6100001 3.46
6.4099998 4.6100001 3.5599999
6.4099998 4.6100001 3.6600001
6.4099998 4.6100001 3.76
6.4099998 4.71 -1.9400001
6.4099998 4.71 -1.84
6.4099998 4.71 -1.74
6.4099998 4.71 -1.64
6.4099998 4.71 -1.54
6.4099998 4.71 -1.4400001
6.4099998 4.71 -1.34
6.4099998 4.71 -1.24
6.4099998 4.71 -1.14
6.4099998 4.71 -1.04
6.4099998 4.71 -0.94
6.4099998 4.71 -0.83999997
6.4099998 4.71 -0.74000001
6.4099998 4.71 -0.63999999
6.4099998 4.71 -0.54000002
6.4099998 4.71 -0.44
6.4099998 4.71 -0.34
6.4099998 4.71 -0.23999999
6.4099998 4.71 -0.14
6.4099998 4.71 -0.039999999
6.4099998 4.71 0.059999999
6.4099998 4.71 0.16
6.4099998 4.71 0.25999999
6.4099998 4.71 0.36000001
6.4099998 4.71 0.46000001
6.4099998 4.71 0.56
6.4099998 4.71 0.66000003
6.4099998 4.71 0.75999999
6.4099998 4.71 0.86000001
6.4099998 4.71 0.95999998
6.4099998 4.71 1.0599999
6.4099998 4.71 1.16
6.4099998 4.71 1.26
6.4099998 4.71 1.36
6.4099998 4.71 1.46
6.4099998 4.71 1.5599999
6.4099998 4.71 1.66
6.4099998 4.71 1.76
6.4099998 4.71 1.86
6.4099998 4.71 1.96
6.4099998 4.71 2.0599999
6.4099998 4.71 2.1600001
6.4099998 4.71 2.26
6.4099998 4.71 2.3599999
6.4099998 4.71 2.46
6.4099998 4.71 2.5599999
6.4099998 4.71 2.6600001
6.4099998 4.71 2.76
6.4099998 4.71 2.8599999
6.4099998 4.71 2.96
6.4099998 4.71 3.0599999
6.4099998 4.71 3.1600001
6.4099998 4.71 3.26
6.4099998 4.71 3.3599999
6.4099998 4.71 3.46
6.4099998 4.71 3.5599999
6.4099998 4.71 3.6600001
6.4099998 4.8099999 -1.9400001
6.4099998 4.8099999 -1.84
6.4099998 4.8099999 -1.74
6.4099998 4.8099999 -1.64
6.4099998 4.8099999 -1.54
6.4099998 4.8099999 -1.4400001
6.4099998 4.8099999 -1.34
6.4099998 4.8099999 -1.24
6.4099998 4.8099999 -1.14
6.4099998 4.8099999 -1.04
6.4099998 4.8099999 -0.94
6.4099998 4.8099999 -0.83999997
6.4099998 4.8099999 -0.74000001
6.4099998 4.8099999 -0.63999999
6.4099998 4.8099999 -0.54000002
6.4099998 4.8099999 -0.44
6.4099998 4.8099999 -0.34
6.4099998 4.8099999 -0.23999999
6.4099998 4.8099999 -0.14
6.4099998 4.8099999 -0.039999999
6.4099998 4.8099999 0.059999999
6.4099998 4.8099999 0.16
6.4099998 4.8099999 0.25999999
6.4099998 4.8099999 0.36000001
6.4099998 4.8099999 0.46000001
6.4099998 4.8099999 0.56
6.4099998 4.8099999 0.66000003
6.4099998 4.8099999 0.75999999
6.4099998 4.8099999 0.86000001
6.4099998 4.8099999 0.95999998
6.4099998 4.8099999 1.0599999
6.4099998 4.8099999 1.16
6.4099998 4.8099999 1.26
6.4099998 4.8099999 1.36
6.4099998 4.8099999 1.46
6.4099998 4.8099999 1.5599999
6.4099998 4.8099999 1.66
6.4099998 4.8099999 1.76
6.4099998 4.8099999 1.86
6.4099998 4.8099999 1.96
6.4099998 4.8099999 2.0599999
6.4099998 4.8099999 2.1600001
6.4099998 4.8099999 2.26
6.4099998 4.8099999 2.3599999
6.4099998 4.8099999 2.46
6.4099998 4.8099999 2.5599999
6.4099998 4.8099999 2.6600001
6.4099998 4.8099999 2.76
6.4099998 4.8099999 2.8599999
6.4099998 4.8099999 2.96
6.4099998 4.8099999 3.0599999
6.4099998 4.8099999 3.1600001
6.4099998 4.8099999 3.26
6.4099998 4.8099999 3.3599999
6.4099998 4.8099999 3.46
6.4099998 4.8099999 3.5599999
6.4099998 4.8099999 3.6600001
6.5100002 4.5100002 -1.9400001
6.5100002 4.5100002 -1.84
6.5100002 4.5100002 -1.74
6.5100002 4.5100002 -1.64
6.5100002 4.5100002 -1.54
6.5100002 4.5100002 -1.4400001
6.5100002 4.5100002 -1.34
6.5100002 4.5100002 -1.24
6.5100002 4.5100002 -1.14
6.5100002 4.5100002 -1.04
6.5100002 4.5100002 -0.94
6.5100002 4.5100002 -0.83999997
6.5100002 4.5100002 -0.74000001
6.5100002 4.5100002 -0.63999999
6.5100002 4.5100002 -0.54000002
6.5100002 4.5100002 -0.44
6.5100002 4.5100002 -0.34
6.5100002 4.5100002 -0.23999999
6.5100002 4.5100002 -0.14
6.5100002 4.5100002 -0.039999999
6.5100002 4.5100002 0.059999999
6.5100002 4.5100002 0.16
6.5100002 4.5100002 0.25999999
6.5100002 4.5100002 0.36000001
6.5100002 4.5100002 0.46000001
6.5100002 4.5100002 0.56
6.5100002 4.5100002 0.66000003
6.5100002 4.5100002 0.75999999
6.5100002 4.5100002 0.86000001
6.5100002 4.5100002 0.95999998
6.5100002 4.5100002 1.0599999
6.5100002 4.5100002 1.16
6.5100002 4.5100002 1.26
6.5100002 4.5100002 1.36
6.5100002 4.5100002 1.46
6.5100002 4.5100002 1.5599999
6.5100002 4.5100002 1.66
6.5100002 4.5100002 1.76
6.5100002 4.5100002 1.86
6.5100002 4.5100002 1.96
6.5100002 4.5100002 2.0599999
6.5100002 4.5100002 2.1600001
6.5100002 4.5100002 2.26
6.5100002 4.5100002 2.3599999
6.5100002 4.5100002 2.46
6.5100002 4.5100002 2.5599999
6.5100002 4.5100002 2.6600001
6.5100002 4.5100002 2.76
6.5100002 4.5100002 2.8599999
6.5100002 4.5100002 2.96
6.5100002 4.5100002 3.0599999
6.5100002 4.5100002 3.1600001
6.5100002 4.5100002 3.26
6.5100002 4.5100002 3.3599999
6.5100002 4.5100002 3.46
6.5100002 4.5100002 3.5599999
6.5100002 4.5100002 3.6600001
6.5100002 4.6100001 -1.9400001
6.5100002 4.6100001 -1.84
6.5100002 4.6100001 -1.74
6.5100002 4.6100001 -1.64
6.5100002 4.6100001 -1.54
6.5100002 4.6100001 -1.4400001
6.5100002 4.6100001 -1.34
6.5100002 4.6100001 -1.24
6.5100002 4.6100001 -1.14
6.5100002 4.6100001 -1.04
6.5100002 4.6100001 -0.94
6.5100002 4.6100001 -0.83999997
6.5100002 4.6100001 -0.74000001
6.5100002 4.6100001 -0.63999999
6.5100002 4.6100001 -0.54000002
6.5100002 4.6100001 -0.44
6.5100002 4.6100001 -0.34
6.5100002 4.6100001 -0.23999999
6.5100002 4.6100001 -0.14
6.5100002 4.6100001 -0.039999999
6.5100002 4.6100001 0.059999999
6.5100002 4.6100001 0.16
6.5100002 4.6100001 0.25999999
6.5100002 4.6100001 0.36000001
6.5100002 4.6100001 0.46000001
6.5100002 4.6100001 0.56
6.5100002 4.6100001 0.66000003
6.5100002 4.6100001 0.75999999
6.5100002 4.6100001 0.86000001
6.5100002 4.6100001 0.95999998
6.5100002 4.6100001 1.0599999
6.5100002 4.6100001 1.16
6.5100002 4.6100001 1.26
6.5100002 4.6100001 1.36
6.5100002 4.6100001 1.46
6.5100002 4.6100001 1.5599999
6.5100002 4.6100001 1.66
6.5100002 4.6100001 1.76
6.5100002 4.6100001 1.86
6.5100002 4.6100001 1.96
6.5100002 4.6100001 2.0599999
6.5100002 4.6100001 2.1600001
6.5100002 4.6100001 2.26
6.5100002 4.6100001 2.3599999
6.5100002 4.6100001 2.46
6.5100002 4.6100001 2.5599999
6.5100002 4.6100001 2.6600001
6.5100002 4.6100001 2.76
6.5100002 4.6100001 2.8599999
6.5100002 4.6100001 2.96
6.5100002 4.6100001 3.0599999
6.5100002 4.6100001 3.1600001
6.5100002 4.6100001 3.26
6.5100002 4.6100001 3.3599999
6.5100002 4.6100001 3.46
6.5100002 4.6100001 3.5599999
6.5100002 4.6100001 3.6600001
6.5100002 4.6100001 3.76
6.5100002 4.71 -1.9400001
6.5100002 4.71 -1.84
6.5100002 4.71 -1.74
6.5100002 4.71 -1.64
6.5100002 4.71 -1.54
6.5100002 4.71 -1.4400001
6.5100002 4.71 -1.34
6.5100002 4.71 -1.24
6.5100002 4.71 -1.14
6.5100002 4.71 -1.04
6.5100002 4.71 -0.94
6.5100002 4.71 -0.83999997
6.5100002 4.71 -0.74000001
6.5100002 4.71 -0.63999999
6.5100002 4.71 -0.54000002
6.5100002 4.71 -0.44
6.5100002 4.71 -0.34
6.5100002 4.71 -0.23999999
6.5100002 4.71 -0.14
6.5100002 4.71 -0.039999999
6.5100002 4.71 0.059999999
6.5100002 4.71 0.16
6.5100002 4.71 0.25999999
6.5100002 4.71 0.36000001
6.5100002 4.71 0.46000001
6.5100002 4.71 0.56
6.5100002 4.71 0.66000003
6.5100002 4.71 0.75999999
6.5100002 4.71 0.86000001
6.5100002 4.71 0.95999998
6.5100002 4.71 1.0599999
6.5100002 4.71 1.16
6.5100002 4.71 1.26
6.5100002 4.71 1.36
6.5100002 4.71 1.46
6.5100002 4.71 1.5599999
6.5100002 4.71 1.66
6.5100002 4.71 1.76
6.5100002 4.71 1.86
6.5100002 4.71 1.96
6.5100002 4.71 2.0599999
6.5100002 4.71 2.1600001
6.5100002 4.71 2.26
6.5100002 4.71 2.3599999
6.5100002 4.71 2.46
6.5100002 4.71 2.5599999
6.5100002 4.71 2.6600001
6.5100002 4.71 2.76
6.5100002 4.71 2.8599999
6.5100002 4.71 2.96
6.5100002 4.71 3.0599999
6.5100002 4.71 3.1600001
6.5100002 4.71 3.26
6.5100002 4.71 3.3599999
6.5100002 4.71 3.46
6.5100002 4.71 3.5599999
6.5100002 4.71 3.6600001
6.5100002 4.71 3.76
6.5100002 4.71 3.8599999
6.5100002 4.71 3.96
6.5100002 4.8099999 -1.9400001
6.5100002 4.8099999 -1.84
6.5100002 4.8099999 -1.74
6.5100002 4.8099999 -1.64
6.5100002 4.8099999 -1.54
6.5100002 4.8099999 -1.4400001
6.5100002 4.8099999 -1.34
6.5100002 4.8099999 -1.24
6.5100002 4.8099999 -1.14
6.5100002 4.8099999 -1.04
6.5100002 4.8099999 -0.94
6.5100002 4.8099999 -0.83999997
6.5100002 4.8099999 -0.74000001
6.5100002 4.8099999 -0.63999999
6.5100002 4.8099999 -0.54000002
6.5100002 4.8099999 -0.44
6.5100002 4.8099999 -0.34
6.5100002 4.8099999 -0.23999999
6.5100002 4.8099999 -0.14
6.5100002 4.8099999 -0.039999999
6.5100002 4.8099999 0.059999999
6.5100002 4.8099999 0.16
6.5100002 4.8099999 0.25999999
6.5100002 4.8099999 0.36000001
6.5100002 4.8099999 0.46000001
6.5100002 4.8099999 0.56
6.5100002 4.8099999 0.66000003
6.5100002 4.8099999 0.75999999
6.5100002 4.8099999 0.86000001
6.5100002 4.8099999 0.95999998
6.5100002 4.8099999 1.0599999
6.5100002 4.8099999 1.16
6.5100002 4.8099999 1.26
6.5100002 4.8099999 1.36
6.5100002 4.8099999 1.46
6.5100002 4.8099999 1.5599999
6.5100002 4.8099999 1.66
6.5100002 4.8099999 1.76
6.5100002 4.8099999 1.86
6.5100002 4.8099999 1.96
6.5100002 4.8099999 2.0599999
6.5100002 4.8099999 2.1600001
6.5100002 4.8099999 2.26
6.5100002 4.8099999 2.3599999
6.5100002 4.8099999 2.46
6.5100002 4.8099999 2.5599999
6.5100002 4.8099999 2.6600001
6.5100002 4.8099999 2.76
6.5100002 4.8099999 2.8599999
6.5100002 4.8099999 2.96
6.5100002 4.8099999 3.0599999
6.5100002 4.8099999 3.1600001
6.5100002 4.8099999 3.26
6.5100002 4.8099999 3.3599999
6.5100002 4.8099999 3.46
6.5100002 4.8099999 3.5599999
6.5100002 4.8099999 3.6600001
6.1100001 4.0100002 -1.9400001
6.1100001 4.0100002 -1.84
6.1100001 4.0100002 -1.74
6.1100001 4.0100002 -1.64
6.1100001 4.0100002 -1.54
6.1100001 4.0100002 -1.4400001
6.1100001 4.0100002 -1.34
6.1100001 4.0100002 -1.24
6.1100001 4.0100002 -1.14
6.1100001 4.0100002 -1.04
6.1100001 4.0100002 -0.94
6.1100001 4.0100002 -0.83999997
6.1100001 4.0100002 -0.74000001
6.1100001 4.0100002 -0.63999999
6.1100001 4.0100002 -0.54000002
6.1100001 4.0100002 -0.44
6.1100001 4.0100002 -0.34
6.1100001 4.0100002 -0.23999999
6.1100001 4.0100002 -0.14
6.1100001 4.0100002 -0.039999999
6.1100001 4.0100002 0.059999999
6.1100001 4.0100002 0.16
6.1100001 4.0100002 0.25999999
6.1100001 4.0100002 0.36000001
6.1100001 4.0100002 0.46000001
6.1100001 4.0100002 0.56
6.1100001 4.0100002 0.66000003
6.1100001 4.0100002 0.75999999
6.1100001 4.0100002 0.86000001
6.1100001 4.0100002 0.95999998
6.1100001 4.0100002 1.0599999
6.1100001 4.0100002 1.16
6.1100001 4.0100002 1.26
6.1100001 4.0100002 1.36
6.1100001 4.0100002 1.46
6.1100001 4.0100002 1.5599999
6.1100001 4.0100002 1.66
6.1100001 4.0100002 1.76
6.1100001 4.0100002 1.86
6.1100001 4.0100002 1.96
6.1100001 4.0100002 2.0599999
6.1100001 4.0100002 2.1600001
6.1100001 4.0100002 2.26
6.1100001 4.0100002 2.3599999
6.1100001 4.0100002 2.46
6.1100001 4.0100002 2.5599999
6.1100001 4.0100002 2.6600001
6.1100001 4.0100002 2.76
6.1100001 4.0100002 2.8599999
6.1100001 4.0100002 2.96
6.1100001 4.0100002 3.0599999
6.1100001 4.0100002 3.1600001
6.1100001 4.0100002 3.26
6.1100001 4.0100002 3.3599999
6.1100001 4.0100002 3.46
6.1100001 4.0100002 3.5599999
6.1100001 4.0100002 3.6600001
6.1100001 4.0100002 3.76
6.1100001 4.0100002 3.8599999
6.1100001 4.0100002 3.96
6.1100001 4.1100001 -1.9400001
6.1100001 4.1100001 -1.84
6.1100001 4.1100001 -1.74
6.1100001 4.1100001 -1.64
6.1100001 4.1100001 -1.54
6.1100001 4.1100001 -1.4400001
6.1100001 4.1100001 -1.34
6.1100001 4.1100001 -1.24
6.1100001 4.1100001 -1.14
6.1100001 4.1100001 -1.04
6.1100001 4.1100001 -0.94
6.1100001 4.1100001 -0.83999997
6.1100001 4.1100001 -0.74000001
6.1100001 4.1100001 -0.63999999
6.1100001 4.1100001 -0.54000002
6.1100001 4.1100001 -0.44
6.1100001 4.1100001 -0.34
6.1100001 4.1100001 -0.23999999
6.1100001 4.1100001 -0.14
6.1100001 4.1100001 -0.039999999
6.1100001 4.1100001 0.059999999
6.1100001 4.1100001 0.16
6.1100001 4.1100001 0.25999999
6.1100001 4.1100001 0.36000001
6.1100001 4.1100001 0.46000001
6.1100001 4.1100001 0.56
6.1100001 4.1100001 0.66000003
6.1100001 4.1100001 0.75999999
6.1100001 4.1100001 0.86000001
6.1100001 4.1100001 0.95999998
6.1100001 4.1100001 1.0599999
6.1100001 4.1100001 1.16
6.1100001 4.1100001 1.26
6.1100001 4.1100001 1.36
6.1100001 4.1100001 1.46
6.1100001 4.1100001 1.5599999
6.1100001 4.1100001 1.66
6.1100001 4.1100001 1.76
6.1100001 4.1100001 1.86
6.1100001 4.1100001 1.96
6.1100001 4.1100001 2.0599999
6.1100001 4.1100001 2.1600001
6.1100001 4.1100001 2.26
6.1100001 4.1100001 2.3599999
6.1100001 4.1100001 2.46
6.1100001 4.1100001 2.5599999
6.1100001 4.1100001 2.6600001
6.1100001 4.1100001 2.76
6.1100001 4.1100001 2.8599999
6.1100001 4.1100001 2.96
6.1100001 4.1100001 3.0599999
6.1100001 4.1100001 3.1600001
6.1100001 4.1100001 3.26
6.1100001 4.1100001 3.3599999
6.1100001 4.1100001 3.46
6.1100001 4.1100001 3.5599999
6.1100001 4.1100001 3.6600001
6.1100001 4.1100001 3.76
6.1100001 4.21 -1.9400001
6.1100001 4.21 -1.84
6.1100001 4.21 -1.74
6.1100001 4.21 -1.64
6.1100001 4.21 -1.54
6.1100001 4.21 -1.4400001
6.1100001 4.21 -1.34
6.1100001 4.21 -1.24
6.1100001 4.21 -1.14
6.1100001 4.21 -1.04
6.1100001 4.21 -0.94
6.1100001 4.21 -0.83999997
6.1100001 4.21 -0.74000001
6.1100001 4.21 -0.63999999
6.1100001 4.21 -0.54000002
6.1100001 4.21 -0.44
6.1100001 4.21 -0.34
6.1100001 4.21 -0.23999999
6.1100001 4.21 -0.14
6.1100001 4.21 -0.039999999
6.1100001 4.21 0.059999999
6.1100001 4.21 0.16
6.1100001 4.21 0.25999999
6.1100001 4.21 0.36000001
6.1100001 4.21 0.46000001
6.1100001 4.21 0.56
6.1100001 4.21 0.66000003
6.1100001 4.21 0.75999999
6.1100001 4.21 0.86000001
6.1100001 4.21 0.95999998
6.1100001 4.21 1.0599999
6.1100001 4.21 1.16
6.1100001 4.21 1.26
6.1100001 4.21 1.36
6.1100001 4.21 1.46
6.1100001 4.21 1.5599999
6.1100001 4.21 1.66
6.1100001 4.21 1.76
6.1100001 4.21 1.86
6.1100001 4.21 1.96
6.1100001 4.21 2.0599999
6.1100001 4.21 2.1600001
6.1100001 4.21 2.26
6.1100001 4.21 2.3599999
6.1100001 4.21 2.46
6.1100001 4.21 2.5599999
6.1100001 4.21 2.6600001
6.1100001 4.21 2.76
6.1100001 4.21 2.8599999
6.1100001 4.21 2.96
6.1100001 4.21 3.0599999
6.1100001 4.21 3.1600001
6.1100001 4.21 3.26
6.1100001 4.21 3.3599999
6.1100001 4.21 3.46
6.1100001 4.21 3.5599999
6.1100001 4.3099999 -1.9400001
6.1100001 4.3099999 -1.84
6.1100001 4.3099999 -1.74
6.1100001 4.3099999 -1.64
6.1100001 4.3099999 -1.54
6.1100001 4.3099999 -1.4400001
6.1100001 4.3099999 -1.34
6.1100001 4.3099999 -1.24
6.1100001 4.3099999 -1.14
6.1100001 4.3099999 -1.04
6.1100001 4.3099999 -0.94
6.1100001 4.3099999 -0.83999997
6.1100001 4.3099999 -0.74000001
6.1100001 4.3099999 -0.63999999
6.1100001 4.3099999 -0.54000002
6.1100001 4.3099999 -0.44
6.1100001 4.3099999 -0.34
6.1100001 4.3099999 -0.23999999
6.1100001 4.3099999 -0.14
6.1100001 4.3099999 -0.039999999
6.1100001 4.3099999 0.059999999
6.1100001 4.3099999 0.16
6.1100001 4.3099999 0.25999999
6.1100001 4.3099999 0.36000001
6.1100001 4.3099999 0.46000001
6.1100001 4.3099999 0.56
6.1100001 4.3099999 0.66000003
6.1100001 4.3099999 0.75999999
6.1100001 4.3099999 0.86000001
6.1100001 4.3099999 0.95999998
6.1100001 4.3099999 1.0599999
6.1100001 4.3099999 1.16
6.1100001 4.3099999 1.26
6.1100001 4.3099999 1.36
6.1100001 4.3099999 1.46
6.1100001 4.3099999 1.5599999
6.1100001 4.3099999 1.66
6.1100001 4.3099999 1.76
6.1100001 4.3099999 1.86
6.1100001 4.3099999 1.96
6.1100001 4.3099999 2.0599999
6.1100001 4.3099999 2.1600001
6.1100001 4.3099999 2.26
6.1100001 4.3099999 2.3599999
6.1100001 4.3099999 2.46
6.1100001 4.3099999 2.5599999
6.1100001 4.3099999 2.6600001
6.1100001 4.3099999 2.76
6.1100001 4.3099999 2.8599999
6.1100001 4.3099999 2.96
6.1100001 4.3099999 3.0599999
6.1100001 4.3099999 3.1600001
6.1100001 4.3099999 3.26
6.1100001 4.3099999 3.3599999
6.1100001 4.3099999 3.46
6.1100001 4.3099999 3.5599999
6.1100001 4.3099999 3.6600001
6.1100001 4.3099999 3.76
6.21 4.0100002 -1.9400001
6.21 4.0100002 -1.84
6.21 4.0100002 -1.74
6.21 4.0100002 -1.64
6.21 4.0100002 -1.54
6.21 4.0100002 -1.4400001
6.21 4.0100002 -1.34
6.21 4.0100002 -1.24
6.21 4.0100002 -1.14
6.21 4.0100002 -1.04
6.21 4.0100002 -0.94
6.21 4.0100002 -0.83999997
6.21 4.0100002 -0.74000001
6.21 4.0100002 -0.63999999
6.21 4.0100002 -0.54000002
6.21 4.0100002 -0.44
6.21 4.0100002 -0.34
6.21 4.0100002 -0.23999999
6.21 4.0100002 -0.14
6.21 4.0100002 -0.039999999
6.21 4.0100002 0.059999999
6.21 4.0100002 0.16
6.21 4.0100002 0.25999999
6.21 4.0100002 0.36000001
6.21 4.0100002 0.46000001
6.21 4.0100002 0.56
6.21 4.0100002 0.66000003
6.21 4.0100002 0.75999999
6.21 4.0100002 0.86000001
6.21 4.0100002 0.95999998
6.21 4.0100002 1.0599999
6.21 4.0100002 1.16
6.21 4.0100002 1.26
6.21 4.0100002 1.36
6.21 4.0100002 1.46
6.21 4.0100002 1.5599999
6.21 4.0100002 1.66
6.21 4.0100002 1.76
6.21 4.0100002 1.86
6.21 4.0100002 1.96
6.21 4.0100002 2.0599999
6.21 4.0100002 2.1600001
6.21 4.0100002 2.26
6.21 4.0100002 2.3599999
6.21 4.0100002 2.46
6.21 4.0100002 2.5599999
6.21 4.0100002 2.6600001
6.21 4.0100002 2.76
6.21 4.0100002 2.8599999
6.21 4.0100002 2.96
6.21 4.0100002 3.0599999
6.21 4.0100002 3.1600001
6.21 4.0100002 3.26
6.21 4.0100002 3.3599999
6.21 4.0100002 3.46
6.21 4.0100002 3.5599999
6.21 4.0100002 3.6600001
6.21 4.0100002 3.76
6.21 4.1100001 -1.9400001
6.21 4.1100001 -1.84
6.21 4.1100001 -1.74
6.21 4.1100001 -1.64
6.21 4.1100001 -1.54
6.21 4.1100001 -1.4400001
6.21 4.1100001 -1.34
6.21 4.1100001 -1.24
6.21 4.1100001 -1.14
6.21 4.1100001 -1.04
6.21 4.1100001 -0.94
6.21 4.1100001 -0.83999997
6.21 4.1100001 -0.74000001
6.21 4.1100001 -0.63999999
6.21 4.1100001 -0.54000002
6.21 4.1100001 -0.44
6.21 4.1100001 -0.34
6.21 4.1100001 -0.23999999
6.21 4.1100001 -0.14
6.21 4.1100001 -0.039999999
6.21 4.1100001 0.059999999
6.21 4.1100001 0.16
6.21 4.1100001 0.25999999
6.21 4.1100001 0.36000001
6.21 4.1100001 0.46000001
6.21 4.1100001 0.56
6.21 4.1100001 0.66000003
6.21 4.1100001 0.75999999
6.21 4.1100001 0.86000001
6.21 4.1100001 0.95999998
6.21 4.1100001 1.0599999
6.21 4.1100001 1.16
6.21 4.1100001 1.26
6.21 4.1100001 1.36
6.21 4.1100001 1.46
6.21 4.1100001 1.5599999
6.21 4.1100001 1.66
6.21 4.1100001 1.76
6.21 4.1100001 1.86
6.21 4.1100001 1.96
6.21 4.1100001 2.0599999
6.21 4.1100001 2.1600001
6.21 4.1100001 2.26
6.21 4.1100001 2.3599999
6.21 4.1100001 2.46
6.21 4.1100001 2.5599999
6.21 4.1100001 2.6600001
6.21 4.1100001 2.76
6.21 4.1100001 2.8599999
6.21 4.1100001 2.96
6.21 4.1100001 3.0599999
6.21 4.1100001 3.1600001
6.21 4.1100001 3.26
6.21 4.1100001 3.3599999
6.21 4.1100001 3.46
6.21 4.1100001 3.5599999
6.21 4.21 -1.9400001
6.21 4.21 -1.84
6.21 4.21 -1.74
6.21 4.21 -1.64
6.21 4.21 -1.54
6.21 4.21 -1.4400001
6.21 4.21 -1.34
6.21 4.21 -1.24
6.21 4.21 -1.14
6.21 4.21 -1.04
6.21 4.21 -0.94
6.21 4.21 -0.83999997
6.21 4.21 -0.74000001
6.21 4.21 -0.63999999
6.21 4.21 -0.54000002
6.21 4.21 -0.44
6.21 4.21 -0.34
6.21 4.21 -0.23999999
6.21 4.21 -0.14
6.21 4.21 -0.039999999
6.21 4.21 0.059999999
6.21 4.21 0.16
6.21 4.21 0.25999999
6.21 4.21 0.36000001
6.21 4.21 0.46000001
6.21 4.21 0.56
6.21 4.21 0.66000003
6.21 4.21 0.75999999
6.21 4.21 0.86000001
6.21 4.21 0.95999998
6.21 4.21 1.0599999
6.21 4.21 1.16
6.21 4.21 1.26
6.21 4.21 1.36
6.21 4.21 1.46
6.21 4.21 1.5599999
6.21 4.21 1.66
6.21 4.21 1.76
6.21 4.21 1.86
6.21 4.21 1.96
6.21 4.21 2.0599999
6.21 4.21 2.1600001
6.21 4.21 2.26
6.21 4.21 2.3599999
6.21 4.21 2.46
6.21 4.21 2.5599999
6.21 4.21 2.6600001
6.21 4.21 2.76
6.21 4.21 2.8599999
6.21 4.21 2.96
6.21 4.21 3.0599999
6.21 4.21 3.1600001
6.21 4.21 3.26
6.21 4.21 3.3599999
6.21 4.21 3.46
6.21 4.21 3.5599999
6.21 4.21 3.6600001
6.21 4.21 3.76
6.21 4.21 3.8599999
6.21 4.3099999 -1.9400001
6.21 4.3099999 -1.84
6.21 4.3099999 -1.74
6.21 4.3099999 -1.64
6.21 4.3099999 -1.54
6.21 4.3099999 -1.4400001
6.21 4.3099999 -1.34
6.21 4.3099999 -1.24
6.21 4.3099999 -1.14
6.21 4.3099999 -1.04
6.21 4.3099999 -0.94
6.21 4.3099999 -0.83999997
6.21 4.3099999 -0.74000001
6.21 4.3099999 -0.63999999
6.21 4.3099999 -0.54000002
6.21 4.3099999 -0.44
6.21 4.3099999 -0.34
6.21 4.3099999 -0.23999999
6.21 4.3099999 -0.14
6.21 4.3099999 -0.039999999
6.21 4.3099999 0.059999999
6.21 4.3099999 0.16
6.21 4.3099999 0.25999999
6.21 4.3099999 0.36000001
6.21 4.3099999 0.46000001
6.21 4.3099999 0.56
6.21 4.3099999 0.66000003
6.21 4.3099999 0.75999999
6.21 4.3099999 0.86000001
6.21 4.3099999 0.95999998
6.21 4.3099999 1.0599999
6.21 4.3099999 1.16
6.21 4.3099999 1.26
6.21 4.3099999 1.36
6.21 4.3099999 1.46
6.21 4.3099999 1.5599999
6.21 4.3099999 1.66
6.21 4.3099999 1.76
6.21 4.3099999 1.86
6.21 4.3099999 1.96
6.21 4.3099999 2.0599999
6.21 4.3099999 2.1600001
6.21 4.3099999 2.26
6.21 4.3099999 2.3599999
6.21 4.3099999 2.46
6.21 4.3099999 2.5599999
6.21 4.3099999 2.6600001
6.21 4.3099999 2.76
6.21 4.3099999 2.8599999
6.21 4.3099999 2.96
6.21 4.3099999 3.0599999
6.21 4.3099999 3.1600001
6.21 4.3099999 3.26
6.21 4.3099999 3.3599999
6.21 4.3099999 3.46
6.21 4.3099999 3.5599999
6.21 4.3099999 3.6600001
6.3099999 4.0100002 -1.9400001
6.3099999 4.0100002 -1.84
6.3099999 4.0100002 -1.74
6.3099999 4.0100002 -1.64
6.3099999 4.0100002 -1.54
6.3099999 4.0100002 -1.4400001
6.3099999 4.0100002 -1.34
6.3099999 4.0100002 -1.24
6.3099999 4.0100002 -1.14
6.3099999 4.0100002 -1.04
6.3099999 4.0100002 -0.94
6.3099999 4.0100002 -0.83999997
6.3099999 4.0100002 -0.74000001
6.3099999 4.0100002 -0.63999999
6.3099999 4.0100002 -0.54000002
6.3099999 4.0100002 -0.44
6.3099999 4.0100002 -0.34
6.3099999 4.0100002 -0.23999999
6.3099999 4.0100002 -0.14
6.3099999 4.0100002 -0.039999999
6.3099999 4.0100002 0.059999999
6.3099999 4.0100002 0.16
6.3099999 4.0100002 0.25999999
6.3099999 4.0100002 0.36000001
6.3099999 4.0100002 0.46000001
6.3099999 4.0100002 0.56
6.3099999 4.0100002 0.66000003
6.3099999 4.0100002 0.75999999
6.3099999 4.0100002 0.86000001
6.3099999 4.0100002 0.95999998
6.3099999 4.0100002 1.0599999
6.3099999 4.0100002 1.16
6.3099999 4.0100002 1.26
6.3099999 4.0100002 1.36
6.3099999 4.0100002 1.46
6.3099999 4.0100002 1.5599999
6.3099999 4.0100002 1.66
6.3099999 4.0100002 1.76
6.3099999 4.0100002 1.86
6.3099999 4.0100002 1.96
6.3099999 4.0100002 2.0599999
6.3099999 4.0100002 2.1600001
6.3099999 4.0100002 2.26
6.3099999 4.0100002 2.3599999
6.3099999 4.0100002 2.46
6.3099999 4.0100002 2.5599999
6.3099999 4.0100002 2.6600001
6.3099999 4.0100002 2.76
6.3099999 4.0100002 2.8599999
6.3099999 4.0100002 2.96
6.3099999 4.0100002 3.0599999
6.3099999 4.0100002 3.1600001
6.3099999 4.0100002 3.26
6.3099999 4.0100002 3.3599999
6.3099999 4.0100002 3.46
6.3099999 4.0100002 3.5599999
6.3099999 4.0100002 3.6600001
6.3099999 4.0100002 3.76
6.3099999 4.0100002 3.8599999
6.3099999 4.0100002 3.96
6.3099999 4.1100001 -1.9400001
6.3099999 4.1100001 -1.84
6.3099999 4.1100001 -1.74
6.3099999 4.1100001 -1.64
6.3099999 4.1100001 -1.54
6.3099999 4.1100001 -1.4400001
6.3099999 4.1100001 -1.34
6.3099999 4.1100001 -1.24
6.3099999 4.1100001 -1.14
6.3099999 4.1100001 -1.04
6.3099999 4.1100001 -0.94
6.3099999 4.1100001 -0.83999997
6.3099999 4.1100001 -0.74000001
6.3099999 4.1100001 -0.63999999
6.3099999 4.1100001 -0.54000002
6.3099999 4.1100001 -0.44
6.3099999 4.1100001 -0.34
6.3099999 4.1100001 -0.23999999
6.3099999 4.1100001 -0.14
6.3099999 4.1100001 -0.039999999
6.3099999 4.1100001 0.059999999
6.3099999 4.1100001 0.16
6.3099999 4.1100001 0.25999999
6.3099999 4.1100001 0.36000001
6.3099999 4.1100001 0.46000001
6.3099999 4.1100001 0.56
6.3099999 4.1100001 0.66000003
6.3099999 4.1100001 0.75999999
6.3099999 4.1100001 0.86000001
6.3099999 4.1100001 0.95999998
6.3099999 4.1100001 1.0599999
6.3099999 4.1100001 1.16
6.3099999 4.1100001 1.26
6.3099999 4.1100001 1.36
6.3099999 4.1100001 1.46
6.3099999 4.1100001 1.5599999
6.3099999 4.1100001 1.66
6.3099999 4.1100001 1.76
6.3099999 4.1100001 1.86
6.3099999 4.1100001 1.96
6.3099999 4.1100001 2.0599999
6.3099999 4.1100001 2.1600001
6.3099999 4.1100001 2.26
6.3099999 4.1100001 2.3599999
6.3099999 4.1100001 2.46
6.3099999 4.1100001 2.5599999
6.3099999 4.1100001 2.6600001
6.3099999 4.1100001 2.76
6.3099999 4.1100001 2.8599999
6.3099999 4.1100001 2.96
6.3099999 4.1100001 3.0599999
6.3099999 4.1100001 3.1600001
6.3099999 4.1100001 3.26
6.3099999 4.1100001 3.3599999
6.3099999 4.1100001 3.46
6.3099999 4.1100001 3.5599999
6.3099999 4.21 -1.9400001
6.3099999 4.21 -1.84
6.3099999 4.21 -1.74
6.3099999 4.21 -1.64
6.3099999 4.21 -1.54
6.3099999 4.21 -1.4400001
6.3099999 4.21 -1.34
6.3099999 4.21 -1.24
6.3099999 4.21 -1.14
6.3099999 4.21 -1.04
6.3099999 4.21 -0.94
6.3099999 4.21 -0.83999997
6.3099999 4.21 -0.74000001
6.3099999 4.21 -0.63999999
6.3099999 4.21 -0.54000002
6.3099999 4.21 -0.44
6.3099999 4.21 -0.34
6.3099999 4.21 -0.23999999
6.3099999 4.21 -0.14
6.3099999 4.21 -0.039999999
6.3099999 4.21 0.059999999
6.3099999 4.21 0.16
6.3099999 4.21 0.25999999
6.3099999 4.21 0.36000001
6.3099999 4.21 0.46000001
6.3099999 4.21 0.56
6.3099999 4.21 0.66000003
6.3099999 4.21 0.75999999
6.3099999 4.21 0.86000001
6.3099999 4.21 0.95999998
6.3099999 4.21 1.0599999
6.3099999 4.21 1.16
6.3099999 4.21 1.26
6.3099999 4.21 1.36
6.3099999 4.21 1.46
6.3099999 4.21 1.5599999
6.3099999 4.21 1.66
6.3099999 4.21 1.76
6.3099999 4.21 1.86
6.3099999 4.21 1.96
6.3099999 4.21 2.0599999
6.3099999 4.21 2.1600001
6.3099999 4.21 2.26
6.3099999 4.21 2.3599999
6.3099999 4.21 2.46
6.3099999 4.21 2.5599999
6.3099999 4.21 2.6600001
6.3099999 4.21 2.76
6.3099999 4.21 2.8599999
6.3099999 4.21 2.96
6.3099999 4.21 3.0599999
6.3099999 4.21 3.1600001
6.3099999 4.21 3.26
6.3099999 4.21 3.3599999
6.3099999 4.21 3.46
6.3099999 4.21 3.5599999
6.3099999 4.21 3.6600001
6.3099999 4.21 3.76
6.3099999 4.21 3.8599999
6.3099999 4.3099999 -1.9400001
6.3099999 4.3099999 -1.84
6.3099999 4.3099999 -1.74
6.3099999 4.3099999 -1.64
6.3099999 4.3099999 -1.54
6.3099999 4.3099999 -1.4400001
6.3099999 4.3099999 -1.34
6.3099999 4.3099999 -1.24
6.3099999 4.3099999 -1.14
6.3099999 4.3099999 -1.04
6.3099999 4.3099999 -0.94
6.3099999 4.3099999 -0.83999997
6.3099999 4.3099999 -0.74000001
6.3099999 4.3099999 -0.63999999
6.3099999 4.3099999 -0.54000002
6.3099999 4.3099999 -0.44
6.3099999 4.3099999 -0.34
6.3099999 4.3099999 -0.23999999
6.3099999 4.3099999 -0.14
6.3099999 4.3099999 -0.039999999
6.3099999 4.3099999 0.059999999
6.3099999 4.3099999 0.16
6.3099999 4.3099999 0.25999999
6.3099999 4.3099999 0.36000001
6.3099999 4.3099999 0.46000001
6.3099999 4.3099999 0.56
6.3099999 4.3099999 0.66000003
6.3099999 4.3099999 0.75999999
6.3099999 4.3099999 0.86000001
6.3099999 4.3099999 0.95999998
6.3099999 4.3099999 1.0599999
6.3099999 4.3099999 1.16
6.3099999 4.3099999 1.26
6.3099999 4.3099999 1.36
6.3099999 4.3099999 1.46
6.3099999 4.3099999 1.5599999
6.3099999 4.3099999 1.66
6.3099999 4.3099999 1.76
6.3099999 4.3099999 1.86
6.3099999 4.3099999 1.96
6.3099999 4.3099999 2.0599999
6.3099999 4.3099999 2.1600001
6.3099999 4.3099999 2.26
6.3099999 4.3099999 2.3599999
6.3099999 4.3099999 2.46
6.3099999 4.3099999 2.5599999
6.3099999 4.3099999 2.6600001
6.3099999 4.3099999 2.76
6.3099999 4.3099999 2.8599999
6.3099999 4.3099999 2.96
6.3099999 4.3099999 3.0599999
6.3099999 4.3099999 3.1600001
6.3099999 4.3099999 3.26
6.3099999 4.3099999 3.3599999
6.3099999 4.3099999 3.46
6.3099999 4.3099999 3.5599999
6.3099999 4.3099999 3.6600001
6.3099999 4.3099999 3.76
6.3099999 4.3099999 3.8599999
6.3099999 4.3099999 3.96
6.4099998 4.0100002 -1.9400001
6.4099998 4.0100002 -1.84
6.4099998 4.0100002 -1.74
6.4099998 4.0100002 -1.64
6.4099998 4.0100002 -1.54
6.4099998 4.0100002 -1.4400001
6.4099998 4.0100002 -1.34
6.4099998 4.0100002 -1.24
6.4099998 4.0100002 -1.14
6.4099998 4.0100002 -1.04
6.4099998 4.0100002 -0.94
6.4099998 4.0100002 -0.83999997
6.4099998 4.0100002 -0.74000001
6.4099998 4.0100002 -0.63999999
6.4099998 4.0100002 -0.54000002
6.4099998 4.0100002 -0.44
6.4099998 4.0100002 -0.34
6.4099998 4.0100002 -0.23999999
6.4099998 4.0100002 -0.14
6.4099998 4.0100002 -0.039999999
6.4099998 4.0100002 0.059999999
6.4099998 4.0100002 0.16
6.4099998 4.0100002 0.25999999
6.4099998 4.0100002 0.36000001
6.4099998 4.0100002 0.46000001
6.4099998 4.0100002 0.56
6.4099998 4.0100002 0.66000003
6.4099998 4.0100002 0.75999999
6.4099998 4.0100002 0.86000001
6.4099998 4.0100002 0.95999998
6.4099998 4.0100002 1.0599999
6.4099998 4.0100002 1.16
6.4099998 4.0100002 1.26
6.4099998 4.0100002 1.36
6.4099998 4.0100002 1.46
6.4099998 4.0100002 1.5599999
6.4099998 4.0100002 1.66
6.4099998 4.0100002 1.76
6.4099998 4.0100002 1.86
6.4099998 4.0100002 1.96
6.4099998 4.0100002 2.0599999
6.4099998 4.0100002 2.1600001
6.4099998 4.0100002 2.26
6.4099998 4.0100002 2.3599999
6.4099998 4.0100002 2.46
6.4099998 4.0100002 2.5599999
6.4099998 4.0100002 2.6600001
6.4099998 4.0100002 2.76
6.4099998 4.0100002 2.8599999
6.4099998 4.0100002 2.96
6.4099998 4.0100002 3.0599999
6.4099998 4.0100002 3.1600001
6.4099998 4.0100002 3.26
6.4099998 4.0100002 3.3599999
6.4099998 4.0100002 3.46
6.4099998 4.0100002 3.5599999
6.4099998 4.1100001 -1.9400001
6.4099998 4.1100001 -1.84
6.4099998 4.1100001 -1.74
6.4099998 4.1100001 -1.64
6.4099998 4.1100001 -1.54
6.4099998 4.1100001 -1.4400001
6.4099998 4.1100001 -1.34
6.4099998 4.1100001 -1.24
6.4099998 4.1100001 -1.14
6.4099998 4.1100001 -1.04
6.4099998 4.1100001 -0.94
6.4099998 4.1100001 -0.83999997
6.4099998 4.1100001 -0.74000001
6.4099998 4.1100001 -0.63999999
6.4099998 4.1100001 -0.54000002
6.4099998 4.1100001 -0.44
6.4099998 4.1100001 -0.34
6.4099998 4.1100001 -0.23999999
6.4099998 4.1100001 -0.14
6.4099998 4.1100001 -0.039999999
6.4099998 4.1100001 0.059999999
6.4099998 4.1100001 0.16
6.4099998 4.1100001 0.25999999
6.4099998 4.1100001 0.36000001
6.4099998 4.1100001 0.46000001
6.4099998 4.1100001 0.56
6.4099998 4.1100001 0.66000003
6.4099998 4.1100001 0.75999999
6.4099998 4.1100001 0.86000001
6.4099998 4.1100001 0.95999998
6.4099998 4.1100001 1.0599999
6.4099998 4.1100001 1.16
6.4099998 4.1100001 1.26
6.4099998 4.1100001 1.36
6.4099998 4.1100001 1.46
6.4099998 4.1100001 1.5599999
6.4099998 4.1100001 1.66
6.4099998 4.1100001 1.76
6.4099998 4.1100001 1.86
6.4099998 4.1100001 1.96
6.4099998 4.1100001 2.0599999
6.4099998 4.1100001 2.1600001
6.4099998 4.1100001 2.26
6.4099998 4.1100001 2.3599999
6.4099998 4.1100001 2.46
6.4099998 4.1100001 2.5599999
6.4099998 4.1100001 2.6600001
6.4099998 4.1100001 2.76
6.4099998 4.1100001 2.8599999
6.4099998 4.1100001 2.96
6.4099998 4.1100001 3.0599999
