# .PCD v0.7 - Point Cloud Data file format
VERSION 0.7
FIELDS x y z
SIZE 4 4 4
TYPE F F F
COUNT 1 1 1
WIDTH 1927
HEIGHT 1
VIEWPOINT 0 0 0 1 0 0 0
POINTS 1927
DATA ascii
1.5599999 -8.04 -0.54000002
1.5599999 -8.04 -0.44
1.5599999 -8.04 -0.34
1.5599999 -8.04 -0.23999999
1.5599999 -8.04 -0.14
1.5599999 -8.04 -0.039999999
1.5599999 -8.04 0.059999999
1.5599999 -8.04 0.16
1.5599999 -8.04 0.25999999
1.5599999 -8.04 0.36000001
1.5599999 -8.04 0.46000001
1.5599999 -8.04 0.56
1.5599999 -8.04 0.66000003
1.5599999 -8.04 0.75999999
1.5599999 -8.04 0.86000001
1.5599999 -8.04 0.95999998
1.5599999 -8.04 1.0599999
1.5599999 -8.04 1.16
1.5599999 -8.04 1.26
1.5599999 -8.04 1.36
1.5599999 -8.04 1.46
1.5599999 -8.04 1.5599999
1.5599999 -8.04 1.66
1.5599999 -8.04 1.76
1.5599999 -8.04 1.86
1.5599999 -8.04 1.96
1.5599999 -8.04 2.0599999
1.5599999 -8.04 2.1600001
1.5599999 -8.04 2.26
1.5599999 -8.04 2.3599999
1.5599999 -8.04 2.46
1.5599999 -8.04 2.5599999
1.5599999 -8.04 2.6600001
1.5599999 -8.04 2.76
1.5599999 -8.04 2.8599999
1.5599999 -8.04 2.96
1.5599999 -7.9400001 -0.94
1.5599999 -7.9400001 -0.83999997
1.5599999 -7.9400001 -0.74000001
1.5599999 -7.9400001 -0.63999999
1.5599999 -7.9400001 -0.54000002
1.5599999 -7.9400001 -0.44
1.5599999 -7.9400001 -0.34
1.5599999 -7.9400001 -0.23999999
1.5599999 -7.9400001 -0.14
1.5599999 -7.9400001 -0.039999999
1.5599999 -7.9400001 0.059999999
1.5599999 -7.9400001 0.16
1.5599999 -7.9400001 0.25999999
1.5599999 -7.9400001 0.36000001
1.5599999 -7.9400001 0.46000001
1.5599999 -7.9400001 0.56
1.5599999 -7.9400001 0.66000003
1.5599999 -7.9400001 0.75999999
1.5599999 -7.9400001 0.86000001
1.5599999 -7.9400001 0.95999998
1.5599999 -7.9400001 1.0599999
1.5599999 -7.9400001 1.16
1.5599999 -7.9400001 1.26
1.5599999 -7.9400001 1.36
1.5599999 -7.9400001 1.46
1.5599999 -7.9400001 1.5599999
1.5599999 -7.9400001 1.66
1.5599999 -7.9400001 1.76
1.5599999 -7.9400001 1.86
1.5599999 -7.9400001 1.96
1.5599999 -7.9400001 2.0599999
1.5599999 -7.9400001 2.1600001
1.5599999 -7.9400001 2.26
1.5599999 -7.9400001 2.3599999
1.5599999 -7.9400001 2.46
1.5599999 -7.9400001 2.5599999
1.5599999 -7.9400001 2.6600001
1.5599999 -7.9400001 2.76
1.5599999 -7.9400001 2.8599999
1.5599999 -7.9400001 2.96
1.5599999 -7.8400002 -0.94
1.5599999 -7.8400002 -0.83999997
1.5599999 -7.8400002 -0.74000001
1.5599999 -7.8400002 -0.63999999
1.5599999 -7.8400002 -0.54000002
1.5599999 -7.8400002 -0.44
1.5599999 -7.8400002 -0.34
1.5599999 -7.8400002 -0.23999999
1.5599999 -7.8400002 -0.14
1.5599999 -7.8400002 -0.039999999
1.5599999 -7.8400002 0.059999999
1.5599999 -7.8400002 0.16
1.5599999 -7.8400002 0.25999999
1.5599999 -7.8400002 0.36000001
1.5599999 -7.8400002 0.46000001
1.5599999 -7.8400002 0.56
1.5599999 -7.8400002 0.66000003
1.5599999 -7.8400002 0.75999999
1.5599999 -7.8400002 0.86000001
1.5599999 -7.8400002 0.95999998
1.5599999 -7.8400002 1.0599999
1.5599999 -7.8400002 1.16
1.5599999 -7.8400002 1.26
1.5599999 -7.8400002 1.36
1.5599999 -7.8400002 1.46
1.5599999 -7.8400002 1.5599999
1.5599999 -7.8400002 1.66
1.5599999 -7.8400002 1.76
1.5599999 -7.8400002 1.86
1.5599999 -7.8400002 1.96
1.5599999 -7.8400002 2.0599999
1.5599999 -7.8400002 2.1600001
1.5599999 -7.8400002 2.26
1.5599999 -7.8400002 2.3599999
1.5599999 -7.8400002 2.46
1.5599999 -7.8400002 2.5599999
1.5599999 -7.8400002 2.6600001
1.5599999 -7.8400002 2.76
1.5599999 -7.8400002 2.8599999
1.5599999 -7.8400002 2.96
1.5599999 -7.7399998 -0.94
1.5599999 -7.7399998 -0.83999997
1.5599999 -7.7399998 -0.74000001
1.5599999 -7.7399998 -0.63999999
1.5599999 -7.7399998 -0.54000002
1.5599999 -7.7399998 -0.44
1.5599999 -7.7399998 -0.34
1.5599999 -7.7399998 -0.23999999
1.5599999 -7.7399998 -0.14
1.5599999 -7.7399998 -0.039999999
1.5599999 -7.7399998 0.059999999
1.5599999 -7.7399998 0.16
1.5599999 -7.7399998 0.25999999
1.5599999 -7.7399998 0.36000001
1.5599999 -7.7399998 0.46000001
1.5599999 -7.7399998 0.56
1.5599999 -7.7399998 0.66000003
1.5599999 -7.7399998 0.75999999
1.5599999 -7.7399998 0.86000001
1.5599999 -7.7399998 0.95999998
1.5599999 -7.7399998 1.0599999
1.5599999 -7.7399998 1.16
1.5599999 -7.7399998 1.26
1.5599999 -7.7399998 1.36
1.5599999 -7.7399998 1.46
1.5599999 -7.7399998 1.5599999
1.5599999 -7.7399998 1.66
1.5599999 -7.7399998 1.76
1.5599999 -7.7399998 1.86
1.5599999 -7.7399998 1.96
1.5599999 -7.7399998 2.0599999
1.5599999 -7.7399998 2.1600001
1.5599999 -7.7399998 2.26
1.5599999 -7.7399998 2.3599999
1.5599999 -7.7399998 2.46
1.5599999 -7.7399998 2.5599999
1.5599999 -7.7399998 2.6600001
1.5599999 -7.7399998 2.76
1.5599999 -7.7399998 2.8599999
1.5599999 -7.7399998 2.96
1.5599999 -7.6399999 -0.94
1.5599999 -7.6399999 -0.83999997
1.5599999 -7.6399999 -0.74000001
1.5599999 -7.6399999 -0.63999999
1.5599999 -7.6399999 -0.54000002
1.5599999 -7.6399999 -0.44
1.5599999 -7.6399999 -0.34
1.5599999 -7.6399999 -0.23999999
1.5599999 -7.6399999 -0.14
1.5599999 -7.6399999 -0.039999999
1.5599999 -7.6399999 0.059999999
1.5599999 -7.6399999 0.16
1.5599999 -7.6399999 0.25999999
1.5599999 -7.6399999 0.36000001
1.5599999 -7.6399999 0.46000001
1.5599999 -7.6399999 0.56
1.5599999 -7.6399999 0.66000003
1.5599999 -7.6399999 0.75999999
1.5599999 -7.6399999 0.86000001
1.5599999 -7.6399999 0.95999998
1.5599999 -7.6399999 1.0599999
1.5599999 -7.6399999 1.16
1.5599999 -7.6399999 1.26
1.5599999 -7.6399999 1.36
1.5599999 -7.6399999 1.46
1.5599999 -7.6399999 1.5599999
1.5599999 -7.6399999 1.66
1.5599999 -7.6399999 1.76
1.5599999 -7.6399999 1.86
1.5599999 -7.6399999 1.96
1.5599999 -7.6399999 2.0599999
1.5599999 -7.6399999 2.1600001
1.5599999 -7.6399999 2.26
1.5599999 -7.6399999 2.3599999
1.5599999 -7.6399999 2.46
1.5599999 -7.6399999 2.5599999
1.5599999 -7.6399999 2.6600001
1.5599999 -7.6399999 2.76
1.5599999 -7.6399999 2.8599999
1.5599999 -7.6399999 2.96
1.5599999 -7.54 -0.94
1.5599999 -7.54 -0.83999997
1.5599999 -7.54 -0.74000001
1.5599999 -7.54 -0.63999999
1.5599999 -7.54 -0.54000002
1.5599999 -7.54 -0.44
1.5599999 -7.54 -0.34
1.5599999 -7.54 -0.23999999
1.5599999 -7.54 -0.14
1.5599999 -7.54 -0.039999999
1.5599999 -7.54 0.059999999
1.5599999 -7.54 0.16
1.5599999 -7.54 0.25999999
1.5599999 -7.54 0.36000001
1.5599999 -7.54 0.46000001
1.5599999 -7.54 0.56
1.5599999 -7.54 0.66000003
1.5599999 -7.54 0.75999999
1.5599999 -7.54 0.86000001
1.5599999 -7.54 0.95999998
1.5599999 -7.54 1.0599999
1.5599999 -7.54 1.16
1.5599999 -7.54 1.26
1.5599999 -7.54 1.36
1.5599999 -7.54 1.46
1.5599999 -7.54 1.5599999
1.5599999 -7.54 1.66
1.5599999 -7.54 1.76
1.5599999 -7.54 1.86
1.5599999 -7.54 1.96
1.5599999 -7.54 2.0599999
1.5599999 -7.54 2.1600001
1.5599999 -7.54 2.26
1.5599999 -7.54 2.3599999
1.5599999 -7.54 2.46
1.5599999 -7.54 2.5599999
1.5599999 -7.54 2.6600001
1.5599999 -7.54 2.76
1.5599999 -7.54 2.8599999
1.5599999 -7.54 2.96
1.5599999 -7.4400001 -0.94
1.5599999 -7.4400001 -0.83999997
1.5599999 -7.4400001 -0.74000001
1.5599999 -7.4400001 -0.63999999
1.5599999 -7.4400001 -0.54000002
1.5599999 -7.4400001 -0.44
1.5599999 -7.4400001 -0.34
1.5599999 -7.4400001 -0.23999999
1.5599999 -7.4400001 -0.14
1.5599999 -7.4400001 -0.039999999
1.5599999 -7.4400001 0.059999999
1.5599999 -7.4400001 0.16
1.5599999 -7.4400001 0.25999999
1.5599999 -7.4400001 0.36000001
1.5599999 -7.4400001 0.46000001
1.5599999 -7.4400001 0.56
1.5599999 -7.4400001 0.66000003
1.5599999 -7.4400001 0.75999999
1.5599999 -7.4400001 0.86000001
1.5599999 -7.4400001 0.95999998
1.5599999 -7.4400001 1.0599999
1.5599999 -7.4400001 1.16
1.5599999 -7.4400001 1.26
1.5599999 -7.4400001 1.36
1.5599999 -7.4400001 1.46
1.5599999 -7.4400001 1.5599999
1.5599999 -7.4400001 1.66
1.5599999 -7.4400001 1.76
1.5599999 -7.4400001 1.86
1.5599999 -7.4400001 1.96
1.5599999 -7.4400001 2.0599999
1.5599999 -7.4400001 2.1600001
1.5599999 -7.4400001 2.26
1.5599999 -7.4400001 2.3599999
1.5599999 -7.4400001 2.46
1.5599999 -7.4400001 2.5599999
1.5599999 -7.4400001 2.6600001
1.5599999 -7.4400001 2.76
1.5599999 -7.4400001 2.8599999
1.5599999 -7.4400001 2.96
1.66 -8.1400003 -0.94
1.66 -8.1400003 -0.83999997
1.66 -8.1400003 -0.74000001
1.66 -8.1400003 -0.63999999
1.66 -8.1400003 -0.54000002
1.66 -8.1400003 -0.44
1.66 -8.1400003 -0.34
1.66 -8.1400003 -0.23999999
1.66 -8.1400003 -0.14
1.66 -8.1400003 -0.039999999
1.66 -8.1400003 0.059999999
1.66 -8.1400003 0.16
1.66 -8.1400003 0.25999999
1.66 -8.1400003 0.36000001
1.66 -8.1400003 0.46000001
1.66 -8.1400003 0.56
1.66 -8.1400003 0.66000003
1.66 -8.1400003 0.75999999
1.66 -8.1400003 0.86000001
1.66 -8.1400003 0.95999998
1.66 -8.1400003 1.0599999
1.66 -8.1400003 1.16
1.66 -8.1400003 1.26
1.66 -8.1400003 1.36
1.66 -8.1400003 1.46
1.66 -8.1400003 1.5599999
1.66 -8.1400003 1.66
1.66 -8.1400003 1.76
1.66 -8.1400003 1.86
1.66 -8.1400003 1.96
1.66 -8.1400003 2.0599999
1.66 -8.1400003 2.1600001
1.66 -8.1400003 2.26
1.66 -8.1400003 2.3599999
1.66 -8.1400003 2.46
1.66 -8.1400003 2.5599999
1.66 -8.1400003 2.6600001
1.66 -8.1400003 2.76
1.66 -8.1400003 2.8599999
1.66 -8.1400003 2.96
1.66 -8.04 -0.94
1.66 -8.04 -0.83999997
1.66 -8.04 -0.74000001
1.66 -8.04 -0.63999999
1.66 -8.04 -0.54000002
1.66 -8.04 -0.44
1.66 -8.04 -0.34
1.66 -8.04 -0.23999999
1.66 -8.04 -0.14
1.66 -8.04 -0.039999999
1.66 -8.04 0.059999999
1.66 -8.04 0.16
1.66 -8.04 0.25999999
1.66 -8.04 0.36000001
1.66 -8.04 0.46000001
1.66 -8.04 0.56
1.66 -8.04 0.66000003
1.66 -8.04 0.75999999
1.66 -8.04 0.86000001
1.66 -8.04 0.95999998
1.66 -8.04 1.0599999
1.66 -8.04 1.16
1.66 -8.04 1.26
1.66 -8.04 1.36
1.66 -8.04 1.46
1.66 -8.04 1.5599999
1.66 -8.04 1.66
1.66 -8.04 1.76
1.66 -8.04 1.86
1.66 -8.04 1.96
1.66 -8.04 2.0599999
1.66 -8.04 2.1600001
1.66 -8.04 2.26
1.66 -8.04 2.3599999
1.66 -8.04 2.46
1.66 -8.04 2.5599999
1.66 -8.04 2.6600001
1.66 -8.04 2.76
1.66 -8.04 2.8599999
1.66 -8.04 2.96
1.66 -7.9400001 -0.94
1.66 -7.9400001 -0.83999997
1.66 -7.9400001 -0.74000001
1.66 -7.9400001 -0.63999999
1.66 -7.9400001 -0.54000002
1.66 -7.9400001 -0.44
1.66 -7.9400001 -0.34
1.66 -7.9400001 -0.23999999
1.66 -7.9400001 -0.14
1.66 -7.9400001 -0.039999999
1.66 -7.9400001 0.059999999
1.66 -7.9400001 0.16
1.66 -7.9400001 0.25999999
1.66 -7.9400001 0.36000001
1.66 -7.9400001 0.46000001
1.66 -7.9400001 0.56
1.66 -7.9400001 0.66000003
1.66 -7.9400001 0.75999999
1.66 -7.9400001 0.86000001
1.66 -7.9400001 0.95999998
1.66 -7.9400001 1.0599999
1.66 -7.9400001 1.16
1.66 -7.9400001 1.26
1.66 -7.9400001 1.36
1.66 -7.9400001 1.46
1.66 -7.9400001 1.5599999
1.66 -7.9400001 1.66
1.66 -7.9400001 1.76
1.66 -7.9400001 1.86
1.66 -7.9400001 1.96
1.66 -7.9400001 2.0599999
1.66 -7.9400001 2.1600001
1.66 -7.9400001 2.26
1.66 -7.9400001 2.3599999
1.66 -7.9400001 2.46
1.66 -7.9400001 2.5599999
1.66 -7.9400001 2.6600001
1.66 -7.9400001 2.76
1.66 -7.9400001 2.8599999
1.66 -7.9400001 2.96
1.66 -7.8400002 -0.94
1.66 -7.8400002 -0.83999997
1.66 -7.8400002 -0.74000001
1.66 -7.8400002 -0.63999999
1.66 -7.8400002 -0.54000002
1.66 -7.8400002 -0.44
1.66 -7.8400002 -0.34
1.66 -7.8400002 -0.23999999
1.66 -7.8400002 -0.14
1.66 -7.8400002 -0.039999999
1.66 -7.8400002 0.059999999
1.66 -7.8400002 0.16
1.66 -7.8400002 0.25999999
1.66 -7.8400002 0.36000001
1.66 -7.8400002 0.46000001
1.66 -7.8400002 0.56
1.66 -7.8400002 0.66000003
1.66 -7.8400002 0.75999999
1.66 -7.8400002 0.86000001
1.66 -7.8400002 0.95999998
1.66 -7.8400002 1.0599999
1.66 -7.8400002 1.16
1.66 -7.8400002 1.26
1.66 -7.8400002 1.36
1.66 -7.8400002 1.46
1.66 -7.8400002 1.5599999
1.66 -7.8400002 1.66
1.66 -7.8400002 1.76
1.66 -7.8400002 1.86
1.66 -7.8400002 1.96
1.66 -7.8400002 2.0599999
1.66 -7.8400002 2.1600001
1.66 -7.8400002 2.26
1.66 -7.8400002 2.3599999
1.66 -7.8400002 2.46
1.66 -7.8400002 2.5599999
1.66 -7.8400002 2.6600001
1.66 -7.8400002 2.76
1.66 -7.8400002 2.8599999
1.66 -7.8400002 2.96
1.66 -7.7399998 -0.94
1.66 -7.7399998 -0.83999997
1.66 -7.7399998 -0.74000001
1.66 -7.7399998 -0.63999999
1.66 -7.7399998 -0.54000002
1.66 -7.7399998 -0.44
1.66 -7.7399998 -0.34
1.66 -7.7399998 -0.23999999
1.66 -7.7399998 -0.14
1.66 -7.7399998 -0.039999999
1.66 -7.7399998 0.059999999
1.66 -7.7399998 0.16
1.66 -7.7399998 0.25999999
1.66 -7.7399998 0.36000001
1.66 -7.7399998 0.46000001
1.66 -7.7399998 0.56
1.66 -7.7399998 0.66000003
1.66 -7.7399998 0.75999999
1.66 -7.7399998 0.86000001
1.66 -7.7399998 0.95999998
1.66 -7.7399998 1.0599999
1.66 -7.7399998 1.16
1.66 -7.7399998 1.26
1.66 -7.7399998 1.36
1.66 -7.7399998 1.46
1.66 -7.7399998 1.5599999
1.66 -7.7399998 1.66
1.66 -7.7399998 1.76
1.66 -7.7399998 1.86
1.66 -7.7399998 1.96
1.66 -7.7399998 2.0599999
1.66 -7.7399998 2.1600001
1.66 -7.7399998 2.26
1.66 -7.7399998 2.3599999
1.66 -7.7399998 2.46
1.66 -7.7399998 2.5599999
1.66 -7.7399998 2.6600001
1.66 -7.7399998 2.76
1.66 -7.7399998 2.8599999
1.66 -7.7399998 2.96
1.66 -7.6399999 -0.94
1.66 -7.6399999 -0.83999997
1.66 -7.6399999 -0.74000001
1.66 -7.6399999 -0.63999999
1.66 -7.6399999 -0.54000002
1.66 -7.6399999 -0.44
1.66 -7.6399999 -0.34
1.66 -7.6399999 -0.23999999
1.66 -7.6399999 -0.14
1.66 -7.6399999 -0.039999999
1.66 -7.6399999 0.059999999
1.66 -7.6399999 0.16
1.66 -7.6399999 0.25999999
1.66 -7.6399999 0.36000001
1.66 -7.6399999 0.46000001
1.66 -7.6399999 0.56
1.66 -7.6399999 0.66000003
1.66 -7.6399999 0.75999999
1.66 -7.6399999 0.86000001
1.66 -7.6399999 0.95999998
1.66 -7.6399999 1.0599999
1.66 -7.6399999 1.16
1.66 -7.6399999 1.26
1.66 -7.6399999 1.36
1.66 -7.6399999 1.46
1.66 -7.6399999 1.5599999
1.66 -7.6399999 1.66
1.66 -7.6399999 1.76
1.66 -7.6399999 1.86
1.66 -7.6399999 1.96
1.66 -7.6399999 2.0599999
1.66 -7.6399999 2.1600001
1.66 -7.6399999 2.26
1.66 -7.6399999 2.3599999
1.66 -7.6399999 2.46
1.66 -7.6399999 2.5599999
1.66 -7.6399999 2.6600001
1.66 -7.6399999 2.76
1.66 -7.6399999 2.8599999
1.66 -7.6399999 2.96
1.66 -7.54 -0.94
1.66 -7.54 -0.83999997
1.66 -7.54 -0.74000001
1.66 -7.54 -0.63999999
1.66 -7.54 -0.54000002
1.66 -7.54 -0.44
1.66 -7.54 -0.34
1.66 -7.54 -0.23999999
1.66 -7.54 -0.14
1.66 -7.54 -0.039999999
1.66 -7.54 0.059999999
1.66 -7.54 0.16
1.66 -7.54 0.25999999
1.66 -7.54 0.36000001
1.66 -7.54 0.46000001
1.66 -7.54 0.56
1.66 -7.54 0.66000003
1.66 -7.54 0.75999999
1.66 -7.54 0.86000001
1.66 -7.54 0.95999998
1.66 -7.54 1.0599999
1.66 -7.54 1.16
1.66 -7.54 1.26
1.66 -7.54 1.36
1.66 -7.54 1.46
1.66 -7.54 1.5599999
1.66 -7.54 1.66
1.66 -7.54 1.76
1.66 -7.54 1.86
1.66 -7.54 1.96
1.66 -7.54 2.0599999
1.66 -7.54 2.1600001
1.66 -7.54 2.26
1.66 -7.54 2.3599999
1.66 -7.54 2.46
1.66 -7.54 2.5599999
1.66 -7.54 2.6600001
1.66 -7.54 2.76
1.66 -7.54 2.8599999
1.66 -7.54 2.96
1.66 -7.4400001 -0.94
1.66 -7.4400001 -0.83999997
1.66 -7.4400001 -0.74000001
1.66 -7.4400001 -0.63999999
1.66 -7.4400001 -0.54000002
1.66 -7.4400001 -0.44
1.66 -7.4400001 -0.34
1.66 -7.4400001 -0.23999999
1.66 -7.4400001 -0.14
1.66 -7.4400001 -0.039999999
1.66 -7.4400001 0.059999999
1.66 -7.4400001 0.16
1.66 -7.4400001 0.25999999
1.66 -7.4400001 0.36000001
1.66 -7.4400001 0.46000001
1.66 -7.4400001 0.56
1.66 -7.4400001 0.66000003
1.66 -7.4400001 0.75999999
1.66 -7.4400001 0.86000001
1.66 -7.4400001 0.95999998
1.66 -7.4400001 1.0599999
1.66 -7.4400001 1.16
1.66 -7.4400001 1.26
1.66 -7.4400001 1.36
1.66 -7.4400001 1.46
1.66 -7.4400001 1.5599999
1.66 -7.4400001 1.66
1.66 -7.4400001 1.76
1.66 -7.4400001 1.86
1.66 -7.4400001 1.96
1.66 -7.4400001 2.0599999
1.66 -7.4400001 2.1600001
1.66 -7.4400001 2.26
1.66 -7.4400001 2.3599999
1.66 -7.4400001 2.46
1.66 -7.4400001 2.5599999
1.66 -7.4400001 2.6600001
1.66 -7.4400001 2.76
1.66 -7.4400001 2.8599999
1.66 -7.4400001 2.96
1.76 -8.1400003 -0.94
1.76 -8.1400003 -0.83999997
1.76 -8.1400003 -0.74000001
1.76 -8.1400003 -0.63999999
1.76 -8.1400003 -0.54000002
1.76 -8.1400003 -0.44
1.76 -8.1400003 -0.34
1.76 -8.1400003 -0.23999999
1.76 -8.1400003 -0.14
1.76 -8.1400003 -0.039999999
1.76 -8.1400003 0.059999999
1.76 -8.1400003 0.16
1.76 -8.1400003 0.25999999
1.76 -8.1400003 0.36000001
1.76 -8.1400003 0.46000001
1.76 -8.1400003 0.56
1.76 -8.1400003 0.66000003
1.76 -8.1400003 0.75999999
1.76 -8.1400003 0.86000001
1.76 -8.1400003 0.95999998
1.76 -8.1400003 1.0599999
1.76 -8.1400003 1.16
1.76 -8.1400003 1.26
1.76 -8.1400003 1.36
1.76 -8.1400003 1.46
1.76 -8.1400003 1.5599999
1.76 -8.1400003 1.66
1.76 -8.1400003 1.76
1.76 -8.1400003 1.86
1.76 -8.1400003 1.96
1.76 -8.1400003 2.0599999
1.76 -8.1400003 2.1600001
1.76 -8.1400003 2.26
1.76 -8.1400003 2.3599999
1.76 -8.1400003 2.46
1.76 -8.1400003 2.5599999
1.76 -8.1400003 2.6600001
1.76 -8.1400003 2.76
1.76 -8.1400003 2.8599999
1.76 -8.1400003 2.96
1.76 -8.04 -0.94
1.76 -8.04 -0.83999997
1.76 -8.04 -0.74000001
1.76 -8.04 -0.63999999
1.76 -8.04 -0.54000002
1.76 -8.04 -0.44
1.76 -8.04 -0.34
1.76 -8.04 -0.23999999
1.76 -8.04 -0.14
1.76 -8.04 -0.039999999
1.76 -8.04 0.059999999
1.76 -8.04 0.16
1.76 -8.04 0.25999999
1.76 -8.04 0.36000001
1.76 -8.04 0.46000001
1.76 -8.04 0.56
1.76 -8.04 0.66000003
1.76 -8.04 0.75999999
1.76 -8.04 0.86000001
1.76 -8.04 0.95999998
1.76 -8.04 1.0599999
1.76 -8.04 1.16
1.76 -8.04 1.26
1.76 -8.04 1.36
1.76 -8.04 1.46
1.76 -8.04 1.5599999
1.76 -8.04 1.66
1.76 -8.04 1.76
1.76 -8.04 1.86
1.76 -8.04 1.96
1.76 -8.04 2.0599999
1.76 -8.04 2.1600001
1.76 -8.04 2.26
1.76 -8.04 2.3599999
1.76 -8.04 2.46
1.76 -8.04 2.5599999
1.76 -8.04 2.6600001
1.76 -8.04 2.76
1.76 -8.04 2.8599999
1.76 -8.04 2.96
1.76 -7.9400001 -0.94
1.76 -7.9400001 -0.83999997
1.76 -7.9400001 -0.74000001
1.76 -7.9400001 -0.63999999
1.76 -7.9400001 -0.54000002
1.76 -7.9400001 -0.44
1.76 -7.9400001 -0.34
1.76 -7.9400001 -0.23999999
1.76 -7.9400001 -0.14
1.76 -7.9400001 -0.039999999
1.76 -7.9400001 0.059999999
1.76 -7.9400001 0.16
1.76 -7.9400001 0.25999999
1.76 -7.9400001 0.36000001
1.76 -7.9400001 0.46000001
1.76 -7.9400001 0.56
1.76 -7.9400001 0.66000003
1.76 -7.9400001 0.75999999
1.76 -7.9400001 0.86000001
1.76 -7.9400001 0.95999998
1.76 -7.9400001 1.0599999
1.76 -7.9400001 1.16
1.76 -7.9400001 1.26
1.76 -7.9400001 1.36
1.76 -7.9400001 1.46
1.76 -7.9400001 1.5599999
1.76 -7.9400001 1.66
1.76 -7.9400001 1.76
1.76 -7.9400001 1.86
1.76 -7.9400001 1.96
1.76 -7.9400001 2.0599999
1.76 -7.9400001 2.1600001
1.76 -7.9400001 2.26
1.76 -7.9400001 2.3599999
1.76 -7.9400001 2.46
1.76 -7.9400001 2.5599999
1.76 -7.9400001 2.6600001
1.76 -7.9400001 2.76
1.76 -7.9400001 2.8599999
1.76 -7.9400001 2.96
1.76 -7.8400002 -0.94
1.76 -7.8400002 -0.83999997
1.76 -7.8400002 -0.74000001
1.76 -7.8400002 -0.63999999
1.76 -7.8400002 -0.54000002
1.76 -7.8400002 -0.44
1.76 -7.8400002 -0.34
1.76 -7.8400002 -0.23999999
1.76 -7.8400002 -0.14
1.76 -7.8400002 -0.039999999
1.76 -7.8400002 0.059999999
1.76 -7.8400002 0.16
1.76 -7.8400002 0.25999999
1.76 -7.8400002 0.36000001
1.76 -7.8400002 0.46000001
1.76 -7.8400002 0.56
1.76 -7.8400002 0.66000003
1.76 -7.8400002 0.75999999
1.76 -7.8400002 0.86000001
1.76 -7.8400002 0.95999998
1.76 -7.8400002 1.0599999
1.76 -7.8400002 1.16
1.76 -7.8400002 1.26
1.76 -7.8400002 1.36
1.76 -7.8400002 1.46
1.76 -7.8400002 1.5599999
1.76 -7.8400002 1.66
1.76 -7.8400002 1.76
1.76 -7.8400002 1.86
1.76 -7.8400002 1.96
1.76 -7.8400002 2.0599999
1.76 -7.8400002 2.1600001
1.76 -7.8400002 2.26
1.76 -7.8400002 2.3599999
1.76 -7.8400002 2.46
1.76 -7.8400002 2.5599999
1.76 -7.8400002 2.6600001
1.76 -7.8400002 2.76
1.76 -7.8400002 2.8599999
1.76 -7.8400002 2.96
1.76 -7.7399998 -0.94
1.76 -7.7399998 -0.83999997
1.76 -7.7399998 -0.74000001
1.76 -7.7399998 -0.63999999
1.76 -7.7399998 -0.54000002
1.76 -7.7399998 -0.44
1.76 -7.7399998 -0.34
1.76 -7.7399998 -0.23999999
1.76 -7.7399998 -0.14
1.76 -7.7399998 -0.039999999
1.76 -7.7399998 0.059999999
1.76 -7.7399998 0.16
1.76 -7.7399998 0.25999999
1.76 -7.7399998 0.36000001
1.76 -7.7399998 0.46000001
1.76 -7.7399998 0.56
1.76 -7.7399998 0.66000003
1.76 -7.7399998 0.75999999
1.76 -7.7399998 0.86000001
1.76 -7.7399998 0.95999998
1.76 -7.7399998 1.0599999
1.76 -7.7399998 1.16
1.76 -7.7399998 1.26
1.76 -7.7399998 1.36
1.76 -7.7399998 1.46
1.76 -7.7399998 1.5599999
1.76 -7.7399998 1.66
1.76 -7.7399998 1.76
1.76 -7.7399998 1.86
1.76 -7.7399998 1.96
1.76 -7.7399998 2.0599999
1.76 -7.7399998 2.1600001
1.76 -7.7399998 2.26
1.76 -7.7399998 2.3599999
1.76 -7.7399998 2.46
1.76 -7.7399998 2.5599999
1.76 -7.7399998 2.6600001
1.76 -7.7399998 2.76
1.76 -7.7399998 2.8599999
1.76 -7.7399998 2.96
1.76 -7.6399999 -0.94
1.76 -7.6399999 -0.83999997
1.76 -7.6399999 -0.74000001
1.76 -7.6399999 -0.63999999
1.76 -7.6399999 -0.54000002
1.76 -7.6399999 -0.44
1.76 -7.6399999 -0.34
1.76 -7.6399999 -0.23999999
1.76 -7.6399999 -0.14
1.76 -7.6399999 -0.039999999
1.76 -7.6399999 0.059999999
1.76 -7.6399999 0.16
1.76 -7.6399999 0.25999999
1.76 -7.6399999 0.36000001
1.76 -7.6399999 0.46000001
1.76 -7.6399999 0.56
1.76 -7.6399999 0.66000003
1.76 -7.6399999 0.75999999
1.76 -7.6399999 0.86000001
1.76 -7.6399999 0.95999998
1.76 -7.6399999 1.0599999
1.76 -7.6399999 1.16
1.76 -7.6399999 1.26
1.76 -7.6399999 1.36
1.76 -7.6399999 1.46
1.76 -7.6399999 1.5599999
1.76 -7.6399999 1.66
1.76 -7.6399999 1.76
1.76 -7.6399999 1.86
1.76 -7.6399999 1.96
1.76 -7.6399999 2.0599999
1.76 -7.6399999 2.1600001
1.76 -7.6399999 2.26
1.76 -7.6399999 2.3599999
1.76 -7.6399999 2.46
1.76 -7.6399999 2.5599999
1.76 -7.6399999 2.6600001
1.76 -7.6399999 2.76
1.76 -7.6399999 2.8599999
1.76 -7.6399999 2.96
1.76 -7.54 -0.94
1.76 -7.54 -0.83999997
1.76 -7.54 -0.74000001
1.76 -7.54 -0.63999999
1.76 -7.54 -0.54000002
1.76 -7.54 -0.44
1.76 -7.54 -0.34
1.76 -7.54 -0.23999999
1.76 -7.54 -0.14
1.76 -7.54 -0.039999999
1.76 -7.54 0.059999999
1.76 -7.54 0.16
1.76 -7.54 0.25999999
1.76 -7.54 0.36000001
1.76 -7.54 0.46000001
1.76 -7.54 0.56
1.76 -7.54 0.66000003
1.76 -7.54 0.75999999
1.76 -7.54 0.86000001
1.76 -7.54 0.95999998
1.76 -7.54 1.0599999
1.76 -7.54 1.16
1.76 -7.54 1.26
1.76 -7.54 1.36
1.76 -7.54 1.46
1.76 -7.54 1.5599999
1.76 -7.54 1.66
1.76 -7.54 1.76
1.76 -7.54 1.86
1.76 -7.54 1.96
1.76 -7.54 2.0599999
1.76 -7.54 2.1600001
1.76 -7.54 2.26
1.76 -7.54 2.3599999
1.76 -7.54 2.46
1.76 -7.54 2.5599999
1.76 -7.54 2.6600001
1.76 -7.54 2.76
1.76 -7.54 2.8599999
1.76 -7.54 2.96
1.76 -7.4400001 -0.94
1.76 -7.4400001 -0.83999997
1.76 -7.4400001 -0.74000001
1.76 -7.4400001 -0.63999999
1.76 -7.4400001 -0.54000002
1.76 -7.4400001 -0.44
1.76 -7.4400001 -0.34
1.76 -7.4400001 -0.23999999
1.76 -7.4400001 -0.14
1.76 -7.4400001 -0.039999999
1.76 -7.4400001 0.059999999
1.76 -7.4400001 0.16
1.76 -7.4400001 0.25999999
1.76 -7.4400001 0.36000001
1.76 -7.4400001 0.46000001
1.76 -7.4400001 0.56
1.76 -7.4400001 0.66000003
1.76 -7.4400001 0.75999999
1.76 -7.4400001 0.86000001
1.76 -7.4400001 0.95999998
1.76 -7.4400001 1.0599999
1.76 -7.4400001 1.16
1.76 -7.4400001 1.26
1.76 -7.4400001 1.36
1.76 -7.4400001 1.46
1.76 -7.4400001 1.5599999
1.76 -7.4400001 1.66
1.76 -7.4400001 1.76
1.76 -7.4400001 1.86
1.76 -7.4400001 1.96
1.76 -7.4400001 2.0599999
1.76 -7.4400001 2.1600001
1.76 -7.4400001 2.26
1.76 -7.4400001 2.3599999
1.76 -7.4400001 2.46
1.76 -7.4400001 2.5599999
1.76 -7.4400001 2.6600001
1.76 -7.4400001 2.76
1.76 -7.4400001 2.8599999
1.76 -7.4400001 2.96
1.86 -8.1400003 -0.94
1.86 -8.1400003 -0.83999997
1.86 -8.1400003 -0.74000001
1.86 -8.1400003 -0.63999999
1.86 -8.1400003 -0.54000002
1.86 -8.1400003 -0.44
1.86 -8.1400003 -0.34
1.86 -8.1400003 -0.23999999
1.86 -8.1400003 -0.14
1.86 -8.1400003 -0.039999999
1.86 -8.1400003 0.059999999
1.86 -8.1400003 0.16
1.86 -8.1400003 0.25999999
1.86 -8.1400003 0.36000001
1.86 -8.1400003 0.46000001
1.86 -8.1400003 0.56
1.86 -8.1400003 0.66000003
1.86 -8.1400003 0.75999999
1.86 -8.1400003 0.86000001
1.86 -8.1400003 0.95999998
1.86 -8.1400003 1.0599999
1.86 -8.1400003 1.16
1.86 -8.1400003 1.26
1.86 -8.1400003 1.36
1.86 -8.1400003 1.46
1.86 -8.1400003 1.5599999
1.86 -8.1400003 1.66
1.86 -8.1400003 1.76
1.86 -8.1400003 1.86
1.86 -8.1400003 1.96
1.86 -8.1400003 2.0599999
1.86 -8.1400003 2.1600001
1.86 -8.1400003 2.26
1.86 -8.1400003 2.3599999
1.86 -8.1400003 2.46
1.86 -8.1400003 2.5599999
1.86 -8.1400003 2.6600001
1.86 -8.1400003 2.76
1.86 -8.1400003 2.8599999
1.86 -8.1400003 2.96
1.86 -8.04 -0.94
1.86 -8.04 -0.83999997
1.86 -8.04 -0.74000001
1.86 -8.04 -0.63999999
1.86 -8.04 -0.54000002
1.86 -8.04 -0.44
1.86 -8.04 -0.34
1.86 -8.04 -0.23999999
1.86 -8.04 -0.14
1.86 -8.04 -0.039999999
1.86 -8.04 0.059999999
1.86 -8.04 0.16
1.86 -8.04 0.25999999
1.86 -8.04 0.36000001
1.86 -8.04 0.46000001
1.86 -8.04 0.56
1.86 -8.04 0.66000003
1.86 -8.04 0.75999999
1.86 -8.04 0.86000001
1.86 -8.04 0.95999998
1.86 -8.04 1.0599999
1.86 -8.04 1.16
1.86 -8.04 1.26
1.86 -8.04 1.36
1.86 -8.04 1.46
1.86 -8.04 1.5599999
1.86 -8.04 1.66
1.86 -8.04 1.76
1.86 -8.04 1.86
1.86 -8.04 1.96
1.86 -8.04 2.0599999
1.86 -8.04 2.1600001
1.86 -8.04 2.26
1.86 -8.04 2.3599999
1.86 -8.04 2.46
1.86 -8.04 2.5599999
1.86 -8.04 2.6600001
1.86 -8.04 2.76
1.86 -8.04 2.8599999
1.86 -8.04 2.96
1.86 -7.9400001 -0.94
1.86 -7.9400001 -0.83999997
1.86 -7.9400001 -0.74000001
1.86 -7.9400001 -0.63999999
1.86 -7.9400001 -0.54000002
1.86 -7.9400001 -0.44
1.86 -7.9400001 -0.34
1.86 -7.9400001 -0.23999999
1.86 -7.9400001 -0.14
1.86 -7.9400001 -0.039999999
1.86 -7.9400001 0.059999999
1.86 -7.9400001 0.16
1.86 -7.9400001 0.25999999
1.86 -7.9400001 0.36000001
1.86 -7.9400001 0.46000001
1.86 -7.9400001 0.56
1.86 -7.9400001 0.66000003
1.86 -7.9400001 0.75999999
1.86 -7.9400001 0.86000001
1.86 -7.9400001 0.95999998
1.86 -7.9400001 1.0599999
1.86 -7.9400001 1.16
1.86 -7.9400001 1.26
1.86 -7.9400001 1.36
1.86 -7.9400001 1.46
1.86 -7.9400001 1.5599999
1.86 -7.9400001 1.66
1.86 -7.9400001 1.76
1.86 -7.9400001 1.86
1.86 -7.9400001 1.96
1.86 -7.9400001 2.0599999
1.86 -7.9400001 2.1600001
1.86 -7.9400001 2.26
1.86 -7.9400001 2.3599999
1.86 -7.9400001 2.46
1.86 -7.9400001 2.5599999
1.86 -7.9400001 2.6600001
1.86 -7.9400001 2.76
1.86 -7.9400001 2.8599999
1.86 -7.9400001 2.96
1.86 -7.8400002 -0.94
1.86 -7.8400002 -0.83999997
1.86 -7.8400002 -0.74000001
1.86 -7.8400002 -0.63999999
1.86 -7.8400002 -0.54000002
1.86 -7.8400002 -0.44
1.86 -7.8400002 -0.34
1.86 -7.8400002 -0.23999999
1.86 -7.8400002 -0.14
1.86 -7.8400002 -0.039999999
1.86 -7.8400002 0.059999999
1.86 -7.8400002 0.16
1.86 -7.8400002 0.25999999
1.86 -7.8400002 0.36000001
1.86 -7.8400002 0.46000001
1.86 -7.8400002 0.56
1.86 -7.8400002 0.66000003
1.86 -7.8400002 0.75999999
1.86 -7.8400002 0.86000001
1.86 -7.8400002 0.95999998
1.86 -7.8400002 1.0599999
1.86 -7.8400002 1.16
1.86 -7.8400002 1.26
1.86 -7.8400002 1.36
1.86 -7.8400002 1.46
1.86 -7.8400002 1.5599999
1.86 -7.8400002 1.66
1.86 -7.8400002 1.76
1.86 -7.8400002 1.86
1.86 -7.8400002 1.96
1.86 -7.8400002 2.0599999
1.86 -7.8400002 2.1600001
1.86 -7.8400002 2.26
1.86 -7.8400002 2.3599999
1.86 -7.8400002 2.46
1.86 -7.8400002 2.5599999
1.86 -7.8400002 2.6600001
1.86 -7.8400002 2.76
1.86 -7.8400002 2.8599999
1.86 -7.8400002 2.96
1.86 -7.7399998 -0.94
1.86 -7.7399998 -0.83999997
1.86 -7.7399998 -0.74000001
1.86 -7.7399998 -0.63999999
1.86 -7.7399998 -0.54000002
1.86 -7.7399998 -0.44
1.86 -7.7399998 -0.34
1.86 -7.7399998 -0.23999999
1.86 -7.7399998 -0.14
1.86 -7.7399998 -0.039999999
1.86 -7.7399998 0.059999999
1.86 -7.7399998 0.16
1.86 -7.7399998 0.25999999
1.86 -7.7399998 0.36000001
1.86 -7.7399998 0.46000001
1.86 -7.7399998 0.56
1.86 -7.7399998 0.66000003
1.86 -7.7399998 0.75999999
1.86 -7.7399998 0.86000001
1.86 -7.7399998 0.95999998
1.86 -7.7399998 1.0599999
1.86 -7.7399998 1.16
1.86 -7.7399998 1.26
1.86 -7.7399998 1.36
1.86 -7.7399998 1.46
1.86 -7.7399998 1.5599999
1.86 -7.7399998 1.66
1.86 -7.7399998 1.76
1.86 -7.7399998 1.86
1.86 -7.7399998 1.96
1.86 -7.7399998 2.0599999
1.86 -7.7399998 2.1600001
1.86 -7.7399998 2.26
1.86 -7.7399998 2.3599999
1.86 -7.7399998 2.46
1.86 -7.7399998 2.5599999
1.86 -7.7399998 2.6600001
1.86 -7.7399998 2.76
1.86 -7.7399998 2.8599999
1.86 -7.7399998 2.96
1.86 -7.6399999 -0.94
1.86 -7.6399999 -0.83999997
1.86 -7.6399999 -0.74000001
1.86 -7.6399999 -0.63999999
1.86 -7.6399999 -0.54000002
1.86 -7.6399999 -0.44
1.86 -7.6399999 -0.34
1.86 -7.6399999 -0.23999999
1.86 -7.6399999 -0.14
1.86 -7.6399999 -0.039999999
1.86 -7.6399999 0.059999999
1.86 -7.6399999 0.16
1.86 -7.6399999 0.25999999
1.86 -7.6399999 0.36000001
1.86 -7.6399999 0.46000001
1.86 -7.6399999 0.56
1.86 -7.6399999 0.66000003
1.86 -7.6399999 0.75999999
1.86 -7.6399999 0.86000001
1.86 -7.6399999 0.95999998
1.86 -7.6399999 1.0599999
1.86 -7.6399999 1.16
1.86 -7.6399999 1.26
1.86 -7.6399999 1.36
1.86 -7.6399999 1.46
1.86 -7.6399999 1.5599999
1.86 -7.6399999 1.66
1.86 -7.6399999 1.76
1.86 -7.6399999 1.86
1.86 -7.6399999 1.96
1.86 -7.6399999 2.0599999
1.86 -7.6399999 2.1600001
1.86 -7.6399999 2.26
1.86 -7.6399999 2.3599999
1.86 -7.6399999 2.46
1.86 -7.6399999 2.5599999
1.86 -7.6399999 2.6600001
1.86 -7.6399999 2.76
1.86 -7.6399999 2.8599999
1.86 -7.6399999 2.96
1.86 -7.54 -0.94
1.86 -7.54 -0.83999997
1.86 -7.54 -0.74000001
1.86 -7.54 -0.63999999
1.86 -7.54 -0.54000002
1.86 -7.54 -0.44
1.86 -7.54 -0.34
1.86 -7.54 -0.23999999
1.86 -7.54 -0.14
1.86 -7.54 -0.039999999
1.86 -7.54 0.059999999
1.86 -7.54 0.16
1.86 -7.54 0.25999999
1.86 -7.54 0.36000001
1.86 -7.54 0.46000001
1.86 -7.54 0.56
1.86 -7.54 0.66000003
1.86 -7.54 0.75999999
1.86 -7.54 0.86000001
1.86 -7.54 0.95999998
1.86 -7.54 1.0599999
1.86 -7.54 1.16
1.86 -7.54 1.26
1.86 -7.54 1.36
1.86 -7.54 1.46
1.86 -7.54 1.5599999
1.86 -7.54 1.66
1.86 -7.54 1.76
1.86 -7.54 1.86
1.86 -7.54 1.96
1.86 -7.54 2.0599999
1.86 -7.54 2.1600001
1.86 -7.54 2.26
1.86 -7.54 2.3599999
1.86 -7.54 2.46
1.86 -7.54 2.5599999
1.86 -7.54 2.6600001
1.86 -7.54 2.76
1.86 -7.54 2.8599999
1.86 -7.54 2.96
1.86 -7.4400001 -0.94
1.86 -7.4400001 -0.83999997
1.86 -7.4400001 -0.74000001
1.86 -7.4400001 -0.63999999
1.86 -7.4400001 -0.54000002
1.86 -7.4400001 -0.44
1.86 -7.4400001 -0.34
1.86 -7.4400001 -0.23999999
1.86 -7.4400001 -0.14
1.86 -7.4400001 -0.039999999
1.86 -7.4400001 0.059999999
1.86 -7.4400001 0.16
1.86 -7.4400001 0.25999999
1.86 -7.4400001 0.36000001
1.86 -7.4400001 0.46000001
1.86 -7.4400001 0.56
1.86 -7.4400001 0.66000003
1.86 -7.4400001 0.75999999
1.86 -7.4400001 0.86000001
1.86 -7.4400001 0.95999998
1.86 -7.4400001 1.0599999
1.86 -7.4400001 1.16
1.86 -7.4400001 1.26
1.86 -7.4400001 1.36
1.86 -7.4400001 1.46
1.86 -7.4400001 1.5599999
1.86 -7.4400001 1.66
1.86 -7.4400001 1.76
1.86 -7.4400001 1.86
1.86 -7.4400001 1.96
1.86 -7.4400001 2.0599999
1.86 -7.4400001 2.1600001
1.86 -7.4400001 2.26
1.86 -7.4400001 2.3599999
1.86 -7.4400001 2.46
1.86 -7.4400001 2.5599999
1.86 -7.4400001 2.6600001
1.86 -7.4400001 2.76
1.86 -7.4400001 2.8599999
1.86 -7.4400001 2.96
1.96 -8.1400003 -0.94
1.96 -8.1400003 -0.83999997
1.96 -8.1400003 -0.74000001
1.96 -8.1400003 -0.63999999
1.96 -8.1400003 -0.54000002
1.96 -8.1400003 -0.44
1.96 -8.1400003 -0.34
1.96 -8.1400003 -0.23999999
1.96 -8.1400003 -0.14
1.96 -8.1400003 -0.039999999
1.96 -8.1400003 0.059999999
1.96 -8.1400003 0.16
1.96 -8.1400003 0.25999999
1.96 -8.1400003 0.36000001
1.96 -8.1400003 0.46000001
1.96 -8.1400003 0.56
1.96 -8.1400003 0.66000003
1.96 -8.1400003 0.75999999
1.96 -8.1400003 0.86000001
1.96 -8.1400003 0.95999998
1.96 -8.1400003 1.0599999
1.96 -8.1400003 1.16
1.96 -8.1400003 1.26
1.96 -8.1400003 1.36
1.96 -8.1400003 1.46
1.96 -8.1400003 1.5599999
1.96 -8.1400003 1.66
1.96 -8.1400003 1.76
1.96 -8.1400003 1.86
1.96 -8.1400003 1.96
1.96 -8.1400003 2.0599999
1.96 -8.1400003 2.1600001
1.96 -8.1400003 2.26
1.96 -8.1400003 2.3599999
1.96 -8.1400003 2.46
1.96 -8.1400003 2.5599999
1.96 -8.1400003 2.6600001
1.96 -8.1400003 2.76
1.96 -8.1400003 2.8599999
1.96 -8.1400003 2.96
1.96 -8.04 -0.94
1.96 -8.04 -0.83999997
1.96 -8.04 -0.74000001
1.96 -8.04 -0.63999999
1.96 -8.04 -0.54000002
1.96 -8.04 -0.44
1.96 -8.04 -0.34
1.96 -8.04 -0.23999999
1.96 -8.04 -0.14
1.96 -8.04 -0.039999999
1.96 -8.04 0.059999999
1.96 -8.04 0.16
1.96 -8.04 0.25999999
1.96 -8.04 0.36000001
1.96 -8.04 0.46000001
1.96 -8.04 0.56
1.96 -8.04 0.66000003
1.96 -8.04 0.75999999
1.96 -8.04 0.86000001
1.96 -8.04 0.95999998
1.96 -8.04 1.0599999
1.96 -8.04 1.16
1.96 -8.04 1.26
1.96 -8.04 1.36
1.96 -8.04 1.46
1.96 -8.04 1.5599999
1.96 -8.04 1.66
1.96 -8.04 1.76
1.96 -8.04 1.86
1.96 -8.04 1.96
1.96 -8.04 2.0599999
1.96 -8.04 2.1600001
1.96 -8.04 2.26
1.96 -8.04 2.3599999
1.96 -8.04 2.46
1.96 -8.04 2.5599999
1.96 -8.04 2.6600001
1.96 -8.04 2.76
1.96 -8.04 2.8599999
1.96 -8.04 2.96
1.96 -7.9400001 -0.94
1.96 -7.9400001 -0.83999997
1.96 -7.9400001 -0.74000001
1.96 -7.9400001 -0.63999999
1.96 -7.9400001 -0.54000002
1.96 -7.9400001 -0.44
1.96 -7.9400001 -0.34
1.96 -7.9400001 -0.23999999
1.96 -7.9400001 -0.14
1.96 -7.9400001 -0.039999999
1.96 -7.9400001 0.059999999
1.96 -7.9400001 0.16
1.96 -7.9400001 0.25999999
1.96 -7.9400001 0.36000001
1.96 -7.9400001 0.46000001
1.96 -7.9400001 0.56
1.96 -7.9400001 0.66000003
1.96 -7.9400001 0.75999999
1.96 -7.9400001 0.86000001
1.96 -7.9400001 0.95999998
1.96 -7.9400001 1.0599999
1.96 -7.9400001 1.16
1.96 -7.9400001 1.26
1.96 -7.9400001 1.36
1.96 -7.9400001 1.46
1.96 -7.9400001 1.5599999
1.96 -7.9400001 1.66
1.96 -7.9400001 1.76
1.96 -7.9400001 1.86
1.96 -7.9400001 1.96
1.96 -7.9400001 2.0599999
1.96 -7.9400001 2.1600001
1.96 -7.9400001 2.26
1.96 -7.9400001 2.3599999
1.96 -7.9400001 2.46
1.96 -7.9400001 2.5599999
1.96 -7.9400001 2.6600001
1.96 -7.9400001 2.76
1.96 -7.9400001 2.8599999
1.96 -7.9400001 2.96
1.96 -7.8400002 -0.94
1.96 -7.8400002 -0.83999997
1.96 -7.8400002 -0.74000001
1.96 -7.8400002 -0.63999999
1.96 -7.8400002 -0.54000002
1.96 -7.8400002 -0.44
1.96 -7.8400002 -0.34
1.96 -7.8400002 -0.23999999
1.96 -7.8400002 -0.14
1.96 -7.8400002 -0.039999999
1.96 -7.8400002 0.059999999
1.96 -7.8400002 0.16
1.96 -7.8400002 0.25999999
1.96 -7.8400002 0.36000001
1.96 -7.8400002 0.46000001
1.96 -7.8400002 0.56
1.96 -7.8400002 0.66000003
1.96 -7.8400002 0.75999999
1.96 -7.8400002 0.86000001
1.96 -7.8400002 0.95999998
1.96 -7.8400002 1.0599999
1.96 -7.8400002 1.16
1.96 -7.8400002 1.26
1.96 -7.8400002 1.36
1.96 -7.8400002 1.46
1.96 -7.8400002 1.5599999
1.96 -7.8400002 1.66
1.96 -7.8400002 1.76
1.96 -7.8400002 1.86
1.96 -7.8400002 1.96
1.96 -7.8400002 2.0599999
1.96 -7.8400002 2.1600001
1.96 -7.8400002 2.26
1.96 -7.8400002 2.3599999
1.96 -7.8400002 2.46
1.96 -7.8400002 2.5599999
1.96 -7.8400002 2.6600001
1.96 -7.8400002 2.76
1.96 -7.8400002 2.8599999
1.96 -7.8400002 2.96
1.96 -7.7399998 -0.94
1.96 -7.7399998 -0.83999997
1.96 -7.7399998 -0.74000001
1.96 -7.7399998 -0.63999999
1.96 -7.7399998 -0.54000002
1.96 -7.7399998 -0.44
1.96 -7.7399998 -0.34
1.96 -7.7399998 -0.23999999
1.96 -7.7399998 -0.14
1.96 -7.7399998 -0.039999999
1.96 -7.7399998 0.059999999
1.96 -7.7399998 0.16
1.96 -7.7399998 0.25999999
1.96 -7.7399998 0.36000001
1.96 -7.7399998 0.46000001
1.96 -7.7399998 0.56
1.96 -7.7399998 0.66000003
1.96 -7.7399998 0.75999999
1.96 -7.7399998 0.86000001
1.96 -7.7399998 0.95999998
1.96 -7.7399998 1.0599999
1.96 -7.7399998 1.16
1.96 -7.7399998 1.26
1.96 -7.7399998 1.36
1.96 -7.7399998 1.46
1.96 -7.7399998 1.5599999
1.96 -7.7399998 1.66
1.96 -7.7399998 1.76
1.96 -7.7399998 1.86
1.96 -7.7399998 1.96
1.96 -7.7399998 2.0599999
1.96 -7.7399998 2.1600001
1.96 -7.7399998 2.26
1.96 -7.7399998 2.3599999
1.96 -7.7399998 2.46
1.96 -7.7399998 2.5599999
1.96 -7.7399998 2.6600001
1.96 -7.7399998 2.76
1.96 -7.7399998 2.8599999
1.96 -7.7399998 2.96
1.96 -7.6399999 -0.94
1.96 -7.6399999 -0.83999997
1.96 -7.6399999 -0.74000001
1.96 -7.6399999 -0.63999999
1.96 -7.6399999 -0.54000002
1.96 -7.6399999 -0.44
1.96 -7.6399999 -0.34
1.96 -7.6399999 -0.23999999
1.96 -7.6399999 -0.14
1.96 -7.6399999 -0.039999999
1.96 -7.6399999 0.059999999
1.96 -7.6399999 0.16
1.96 -7.6399999 0.25999999
1.96 -7.6399999 0.36000001
1.96 -7.6399999 0.46000001
1.96 -7.6399999 0.56
1.96 -7.6399999 0.66000003
1.96 -7.6399999 0.75999999
1.96 -7.6399999 0.86000001
1.96 -7.6399999 0.95999998
1.96 -7.6399999 1.0599999
1.96 -7.6399999 1.16
1.96 -7.6399999 1.26
1.96 -7.6399999 1.36
1.96 -7.6399999 1.46
1.96 -7.6399999 1.5599999
1.96 -7.6399999 1.66
1.96 -7.6399999 1.76
1.96 -7.6399999 1.86
1.96 -7.6399999 1.96
1.96 -7.6399999 2.0599999
1.96 -7.6399999 2.1600001
1.96 -7.6399999 2.26
1.96 -7.6399999 2.3599999
1.96 -7.6399999 2.46
1.96 -7.6399999 2.5599999
1.96 -7.6399999 2.6600001
1.96 -7.6399999 2.76
1.96 -7.6399999 2.8599999
1.96 -7.6399999 2.96
1.96 -7.54 -0.94
1.96 -7.54 -0.83999997
1.96 -7.54 -0.74000001
1.96 -7.54 -0.63999999
1.96 -7.54 -0.54000002
1.96 -7.54 -0.44
1.96 -7.54 -0.34
1.96 -7.54 -0.23999999
1.96 -7.54 -0.14
1.96 -7.54 -0.039999999
1.96 -7.54 0.059999999
1.96 -7.54 0.16
1.96 -7.54 0.25999999
1.96 -7.54 0.36000001
1.96 -7.54 0.46000001
1.96 -7.54 0.56
1.96 -7.54 0.66000003
1.96 -7.54 0.75999999
1.96 -7.54 0.86000001
1.96 -7.54 0.95999998
1.96 -7.54 1.0599999
1.96 -7.54 1.16
1.96 -7.54 1.26
1.96 -7.54 1.36
1.96 -7.54 1.46
1.96 -7.54 1.5599999
1.96 -7.54 1.66
1.96 -7.54 1.76
1.96 -7.54 1.86
1.96 -7.54 1.96
1.96 -7.54 2.0599999
1.96 -7.54 2.1600001
1.96 -7.54 2.26
1.96 -7.54 2.3599999
1.96 -7.54 2.46
1.96 -7.54 2.5599999
1.96 -7.54 2.6600001
1.96 -7.54 2.76
1.96 -7.54 2.8599999
1.96 -7.54 2.96
1.96 -7.4400001 -0.94
1.96 -7.4400001 -0.83999997
1.96 -7.4400001 -0.74000001
1.96 -7.4400001 -0.63999999
1.96 -7.4400001 -0.54000002
1.96 -7.4400001 -0.44
1.96 -7.4400001 -0.34
1.96 -7.4400001 -0.23999999
1.96 -7.4400001 -0.14
1.96 -7.4400001 -0.039999999
1.96 -7.4400001 0.059999999
1.96 -7.4400001 0.16
1.96 -7.4400001 0.25999999
1.96 -7.4400001 0.36000001
1.96 -7.4400001 0.46000001
1.96 -7.4400001 0.56
1.96 -7.4400001 0.66000003
1.96 -7.4400001 0.75999999
1.96 -7.4400001 0.86000001
1.96 -7.4400001 0.95999998
1.96 -7.4400001 1.0599999
1.96 -7.4400001 1.16
1.96 -7.4400001 1.26
1.96 -7.4400001 1.36
1.96 -7.4400001 1.46
1.96 -7.4400001 1.5599999
1.96 -7.4400001 1.66
1.96 -7.4400001 1.76
1.96 -7.4400001 1.86
1.96 -7.4400001 1.96
1.96 -7.4400001 2.0599999
1.96 -7.4400001 2.1600001
1.96 -7.4400001 2.26
1.96 -7.4400001 2.3599999
1.96 -7.4400001 2.46
1.96 -7.4400001 2.5599999
1.96 -7.4400001 2.6600001
1.96 -7.4400001 2.76
1.96 -7.4400001 2.8599999
1.96 -7.4400001 2.96
2.0599999 -8.1400003 -0.94
2.0599999 -8.1400003 -0.83999997
2.0599999 -8.1400003 -0.74000001
2.0599999 -8.1400003 -0.63999999
2.0599999 -8.1400003 -0.54000002
2.0599999 -8.1400003 -0.44
2.0599999 -8.1400003 -0.34
2.0599999 -8.1400003 -0.23999999
2.0599999 -8.1400003 -0.14
2.0599999 -8.1400003 -0.039999999
2.0599999 -8.1400003 0.059999999
2.0599999 -8.1400003 0.16
2.0599999 -8.1400003 0.25999999
2.0599999 -8.1400003 0.36000001
2.0599999 -8.1400003 0.46000001
2.0599999 -8.1400003 0.56
2.0599999 -8.1400003 0.66000003
2.0599999 -8.1400003 0.75999999
2.0599999 -8.1400003 0.86000001
2.0599999 -8.1400003 0.95999998
2.0599999 -8.1400003 1.0599999
2.0599999 -8.1400003 1.16
2.0599999 -8.1400003 1.26
2.0599999 -8.1400003 1.36
2.0599999 -8.1400003 1.46
2.0599999 -8.1400003 1.5599999
2.0599999 -8.1400003 1.66
2.0599999 -8.1400003 1.76
2.0599999 -8.1400003 1.86
2.0599999 -8.1400003 1.96
2.0599999 -8.1400003 2.0599999
2.0599999 -8.1400003 2.1600001
2.0599999 -8.1400003 2.26
2.0599999 -8.1400003 2.3599999
2.0599999 -8.1400003 2.46
2.0599999 -8.1400003 2.5599999
2.0599999 -8.1400003 2.6600001
2.0599999 -8.1400003 2.76
2.0599999 -8.1400003 2.8599999
2.0599999 -8.1400003 2.96
2.0599999 -8.04 -0.94
2.0599999 -8.04 -0.83999997
2.0599999 -8.04 -0.74000001
2.0599999 -8.04 -0.63999999
2.0599999 -8.04 -0.54000002
2.0599999 -8.04 -0.44
2.0599999 -8.04 -0.34
2.0599999 -8.04 -0.23999999
2.0599999 -8.04 -0.14
2.0599999 -8.04 -0.039999999
2.0599999 -8.04 0.059999999
2.0599999 -8.04 0.16
2.0599999 -8.04 0.25999999
2.0599999 -8.04 0.36000001
2.0599999 -8.04 0.46000001
2.0599999 -8.04 0.56
2.0599999 -8.04 0.66000003
2.0599999 -8.04 0.75999999
2.0599999 -8.04 0.86000001
2.0599999 -8.04 0.95999998
2.0599999 -8.04 1.0599999
2.0599999 -8.04 1.16
2.0599999 -8.04 1.26
2.0599999 -8.04 1.36
2.0599999 -8.04 1.46
2.0599999 -8.04 1.5599999
2.0599999 -8.04 1.66
2.0599999 -8.04 1.76
2.0599999 -8.04 1.86
2.0599999 -8.04 1.96
2.0599999 -8.04 2.0599999
2.0599999 -8.04 2.1600001
2.0599999 -8.04 2.26
2.0599999 -8.04 2.3599999
2.0599999 -8.04 2.46
2.0599999 -8.04 2.5599999
2.0599999 -8.04 2.6600001
2.0599999 -8.04 2.76
2.0599999 -8.04 2.8599999
2.0599999 -8.04 2.96
2.0599999 -7.9400001 -0.94
2.0599999 -7.9400001 -0.83999997
2.0599999 -7.9400001 -0.74000001
2.0599999 -7.9400001 -0.63999999
2.0599999 -7.9400001 -0.54000002
2.0599999 -7.9400001 -0.44
2.0599999 -7.9400001 -0.34
2.0599999 -7.9400001 -0.23999999
2.0599999 -7.9400001 -0.14
2.0599999 -7.9400001 -0.039999999
2.0599999 -7.9400001 0.059999999
2.0599999 -7.9400001 0.16
2.0599999 -7.9400001 0.25999999
2.0599999 -7.9400001 0.36000001
2.0599999 -7.9400001 0.46000001
2.0599999 -7.9400001 0.56
2.0599999 -7.9400001 0.66000003
2.0599999 -7.9400001 0.75999999
2.0599999 -7.9400001 0.86000001
2.0599999 -7.9400001 0.95999998
2.0599999 -7.9400001 1.0599999
2.0599999 -7.9400001 1.16
2.0599999 -7.9400001 1.26
2.0599999 -7.9400001 1.36
2.0599999 -7.9400001 1.46
2.0599999 -7.9400001 1.5599999
2.0599999 -7.9400001 1.66
2.0599999 -7.9400001 1.76
2.0599999 -7.9400001 1.86
2.0599999 -7.9400001 1.96
2.0599999 -7.9400001 2.0599999
2.0599999 -7.9400001 2.1600001
2.0599999 -7.9400001 2.26
2.0599999 -7.9400001 2.3599999
2.0599999 -7.9400001 2.46
2.0599999 -7.9400001 2.5599999
2.0599999 -7.9400001 2.6600001
2.0599999 -7.9400001 2.76
2.0599999 -7.9400001 2.8599999
2.0599999 -7.9400001 2.96
2.0599999 -7.8400002 -0.94
2.0599999 -7.8400002 -0.83999997
2.0599999 -7.8400002 -0.74000001
2.0599999 -7.8400002 -0.63999999
2.0599999 -7.8400002 -0.54000002
2.0599999 -7.8400002 -0.44
2.0599999 -7.8400002 -0.34
2.0599999 -7.8400002 -0.23999999
2.0599999 -7.8400002 -0.14
2.0599999 -7.8400002 -0.039999999
2.0599999 -7.8400002 0.059999999
2.0599999 -7.8400002 0.16
2.0599999 -7.8400002 0.25999999
2.0599999 -7.8400002 0.36000001
2.0599999 -7.8400002 0.46000001
2.0599999 -7.8400002 0.56
2.0599999 -7.8400002 0.66000003
2.0599999 -7.8400002 0.75999999
2.0599999 -7.8400002 0.86000001
2.0599999 -7.8400002 0.95999998
2.0599999 -7.8400002 1.0599999
2.0599999 -7.8400002 1.16
2.0599999 -7.8400002 1.26
2.0599999 -7.8400002 1.36
2.0599999 -7.8400002 1.46
2.0599999 -7.8400002 1.5599999
2.0599999 -7.8400002 1.66
2.0599999 -7.8400002 1.76
2.0599999 -7.8400002 1.86
2.0599999 -7.8400002 1.96
2.0599999 -7.8400002 2.0599999
2.0599999 -7.8400002 2.1600001
2.0599999 -7.8400002 2.26
2.0599999 -7.8400002 2.3599999
2.0599999 -7.8400002 2.46
2.0599999 -7.8400002 2.5599999
2.0599999 -7.8400002 2.6600001
2.0599999 -7.8400002 2.76
2.0599999 -7.8400002 2.8599999
2.0599999 -7.8400002 2.96
2.0599999 -7.7399998 -0.94
2.0599999 -7.7399998 -0.83999997
2.0599999 -7.7399998 -0.74000001
2.0599999 -7.7399998 -0.63999999
2.0599999 -7.7399998 -0.54000002
2.0599999 -7.7399998 -0.44
2.0599999 -7.7399998 -0.34
2.0599999 -7.7399998 -0.23999999
2.0599999 -7.7399998 -0.14
2.0599999 -7.7399998 -0.039999999
2.0599999 -7.7399998 0.059999999
2.0599999 -7.7399998 0.16
2.0599999 -7.7399998 0.25999999
2.0599999 -7.7399998 0.36000001
2.0599999 -7.7399998 0.46000001
2.0599999 -7.7399998 0.56
2.0599999 -7.7399998 0.66000003
2.0599999 -7.7399998 0.75999999
2.0599999 -7.7399998 0.86000001
2.0599999 -7.7399998 0.95999998
2.0599999 -7.7399998 1.0599999
2.0599999 -7.7399998 1.16
2.0599999 -7.7399998 1.26
2.0599999 -7.7399998 1.36
2.0599999 -7.7399998 1.46
2.0599999 -7.7399998 1.5599999
2.0599999 -7.7399998 1.66
2.0599999 -7.7399998 1.76
2.0599999 -7.7399998 1.86
2.0599999 -7.7399998 1.96
2.0599999 -7.7399998 2.0599999
2.0599999 -7.7399998 2.1600001
2.0599999 -7.7399998 2.26
2.0599999 -7.7399998 2.3599999
2.0599999 -7.7399998 2.46
2.0599999 -7.7399998 2.5599999
2.0599999 -7.7399998 2.6600001
2.0599999 -7.7399998 2.76
2.0599999 -7.7399998 2.8599999
2.0599999 -7.7399998 2.96
2.0599999 -7.6399999 -0.94
2.0599999 -7.6399999 -0.83999997
2.0599999 -7.6399999 -0.74000001
2.0599999 -7.6399999 -0.63999999
2.0599999 -7.6399999 -0.54000002
2.0599999 -7.6399999 -0.44
2.0599999 -7.6399999 -0.34
2.0599999 -7.6399999 -0.23999999
2.0599999 -7.6399999 -0.14
2.0599999 -7.6399999 -0.039999999
2.0599999 -7.6399999 0.059999999
2.0599999 -7.6399999 0.16
2.0599999 -7.6399999 0.25999999
2.0599999 -7.6399999 0.36000001
2.0599999 -7.6399999 0.46000001
2.0599999 -7.6399999 0.56
2.0599999 -7.6399999 0.66000003
2.0599999 -7.6399999 0.75999999
2.0599999 -7.6399999 0.86000001
2.0599999 -7.6399999 0.95999998
2.0599999 -7.6399999 1.0599999
2.0599999 -7.6399999 1.16
2.0599999 -7.6399999 1.26
2.0599999 -7.6399999 1.36
2.0599999 -7.6399999 1.46
2.0599999 -7.6399999 1.5599999
2.0599999 -7.6399999 1.66
2.0599999 -7.6399999 1.76
2.0599999 -7.6399999 1.86
2.0599999 -7.6399999 1.96
2.0599999 -7.6399999 2.0599999
2.0599999 -7.6399999 2.1600001
2.0599999 -7.6399999 2.26
2.0599999 -7.6399999 2.3599999
2.0599999 -7.6399999 2.46
2.0599999 -7.6399999 2.5599999
2.0599999 -7.6399999 2.6600001
2.0599999 -7.6399999 2.76
2.0599999 -7.6399999 2.8599999
2.0599999 -7.6399999 2.96
2.0599999 -7.54 -0.94
2.0599999 -7.54 -0.83999997
2.0599999 -7.54 -0.74000001
2.0599999 -7.54 -0.63999999
2.0599999 -7.54 -0.54000002
2.0599999 -7.54 -0.44
2.0599999 -7.54 -0.34
2.0599999 -7.54 -0.23999999
2.0599999 -7.54 -0.14
2.0599999 -7.54 -0.039999999
2.0599999 -7.54 0.059999999
2.0599999 -7.54 0.16
2.0599999 -7.54 0.25999999
2.0599999 -7.54 0.36000001
2.0599999 -7.54 0.46000001
2.0599999 -7.54 0.56
2.0599999 -7.54 0.66000003
2.0599999 -7.54 0.75999999
2.0599999 -7.54 0.86000001
2.0599999 -7.54 0.95999998
2.0599999 -7.54 1.0599999
2.0599999 -7.54 1.16
2.0599999 -7.54 1.26
2.0599999 -7.54 1.36
2.0599999 -7.54 1.46
2.0599999 -7.54 1.5599999
2.0599999 -7.54 1.66
2.0599999 -7.54 1.76
2.0599999 -7.54 1.86
2.0599999 -7.54 1.96
2.0599999 -7.54 2.0599999
2.0599999 -7.54 2.1600001
2.0599999 -7.54 2.26
2.0599999 -7.54 2.3599999
2.0599999 -7.54 2.46
2.0599999 -7.54 2.5599999
2.0599999 -7.54 2.6600001
2.0599999 -7.54 2.76
2.0599999 -7.54 2.8599999
2.0599999 -7.54 2.96
2.0599999 -7.4400001 -0.94
2.0599999 -7.4400001 -0.83999997
2.0599999 -7.4400001 -0.74000001
2.0599999 -7.4400001 -0.63999999
2.0599999 -7.4400001 -0.54000002
2.0599999 -7.4400001 -0.44
2.0599999 -7.4400001 -0.34
2.0599999 -7.4400001 -0.23999999
2.0599999 -7.4400001 -0.14
2.0599999 -7.4400001 -0.039999999
2.0599999 -7.4400001 0.059999999
2.0599999 -7.4400001 0.16
2.0599999 -7.4400001 0.25999999
2.0599999 -7.4400001 0.36000001
2.0599999 -7.4400001 0.46000001
2.0599999 -7.4400001 0.56
2.0599999 -7.4400001 0.66000003
2.0599999 -7.4400001 0.75999999
2.0599999 -7.4400001 0.86000001
2.0599999 -7.4400001 0.95999998
2.0599999 -7.4400001 1.0599999
2.0599999 -7.4400001 1.16
2.0599999 -7.4400001 1.26
2.0599999 -7.4400001 1.36
2.0599999 -7.4400001 1.46
2.0599999 -7.4400001 1.5599999
2.0599999 -7.4400001 1.66
2.0599999 -7.4400001 1.76
2.0599999 -7.4400001 1.86
2.0599999 -7.4400001 1.96
2.0599999 -7.4400001 2.0599999
2.0599999 -7.4400001 2.1600001
2.0599999 -7.4400001 2.26
2.0599999 -7.4400001 2.3599999
2.0599999 -7.4400001 2.46
2.0599999 -7.4400001 2.5599999
2.0599999 -7.4400001 2.6600001
2.0599999 -7.4400001 2.76
2.0599999 -7.4400001 2.8599999
2.0599999 -7.4400001 2.96
2.1600001 -8.1400003 -0.94
2.1600001 -8.1400003 -0.83999997
2.1600001 -8.1400003 -0.74000001
2.1600001 -8.1400003 -0.63999999
2.1600001 -8.1400003 -0.54000002
2.1600001 -8.1400003 -0.44
2.1600001 -8.1400003 -0.34
2.1600001 -8.1400003 -0.23999999
2.1600001 -8.1400003 -0.14
2.1600001 -8.1400003 -0.039999999
2.1600001 -8.1400003 0.059999999
2.1600001 -8.1400003 0.16
2.1600001 -8.1400003 0.25999999
2.1600001 -8.1400003 0.36000001
2.1600001 -8.1400003 0.46000001
2.1600001 -8.1400003 0.56
2.1600001 -8.1400003 0.66000003
2.1600001 -8.1400003 0.75999999
2.1600001 -8.1400003 0.86000001
2.1600001 -8.1400003 0.95999998
2.1600001 -8.1400003 1.0599999
2.1600001 -8.1400003 1.16
2.1600001 -8.1400003 1.26
2.1600001 -8.1400003 1.36
2.1600001 -8.1400003 1.46
2.1600001 -8.1400003 1.5599999
2.1600001 -8.1400003 1.66
2.1600001 -8.1400003 1.76
2.1600001 -8.1400003 1.86
2.1600001 -8.1400003 1.96
2.1600001 -8.1400003 2.0599999
2.1600001 -8.1400003 2.1600001
2.1600001 -8.1400003 2.26
2.1600001 -8.1400003 2.3599999
2.1600001 -8.1400003 2.46
2.1600001 -8.1400003 2.5599999
2.1600001 -8.1400003 2.6600001
2.1600001 -8.1400003 2.76
2.1600001 -8.1400003 2.8599999
2.1600001 -8.1400003 2.96
2.1600001 -8.04 -0.94
2.1600001 -8.04 -0.83999997
2.1600001 -8.04 -0.74000001
2.1600001 -8.04 -0.63999999
2.1600001 -8.04 -0.54000002
2.1600001 -8.04 -0.44
2.1600001 -8.04 -0.34
2.1600001 -8.04 -0.23999999
2.1600001 -8.04 -0.14
2.1600001 -8.04 -0.039999999
2.1600001 -8.04 0.059999999
